ncols         336
nrows         32
xllcorner     783874.747669
yllcorner     4080927.86725
cellsize      3.4357867528787
NODATA_value  -9999
17.78025 17.71959 17.75234 17.69205 17.74614 17.78899 17.81059 17.70448 17.73013 17.7373 17.73631 17.69912 17.75418 17.78201 17.72168 17.75074 17.72371 17.72452 17.7361 17.73355 17.69301 17.66057 17.73809 17.69307 17.78983 17.72307 17.65398 17.65617 17.6396 17.72137 17.71831 17.61786 17.65916 17.65472 17.64037 17.6915 17.63854 17.67972 17.73652 17.66679 17.60694 17.66395 17.69084 17.71692 17.66857 17.62748 17.6361 17.66039 17.65122 17.70712 17.73467 17.6872 17.65361 17.57351 17.6135 17.66052 17.64241 17.64906 17.67578 17.725 17.67168 17.57418 17.61218 17.68147 17.61883 17.61906 17.59437 17.6303 17.63712 17.61694 17.63413 17.56353 17.60492 17.66049 17.63655 17.67195 17.69524 17.74728 17.86866 17.94544 17.83143 17.89051 18.02501 18.07872 18.19594 18.20653 18.2837 17.97745 17.89294 17.72003 17.61265 17.62098 17.70143 17.86864 17.97216 17.93896 17.97562 17.99194 18.01532 18.12179 18.20468 18.06523 17.81439 17.68119 17.66721 17.67174 17.65797 17.75038 17.8236 17.67877 17.71445 17.67782 17.71327 17.76488 17.60262 17.63088 17.67638 17.71688 17.62092 17.63591 17.74842 17.70751 17.67453 17.75001 17.84395 17.77396 17.72279 17.75327 17.70959 17.76168 17.72914 17.70649 17.80947 17.72904 17.68607 17.67279 17.6957 17.70175 17.76079 17.73152 17.77498 17.72618 17.735 17.79315 17.74366 17.73681 17.78716 17.7539 17.72737 17.74635 17.68681 17.74098 17.76061 17.78858 17.85374 17.91905 17.88222 17.88196 17.93839 17.89192 17.95209 17.9985 18.06845 18.01194 18.03805 18.05937 18.06258 18.12598 18.09296 18.16211 18.17534 18.16213 18.15434 18.16462 18.30824 18.27685 18.17786 18.04678 18.18775 18.13466 18.20983 18.20238 18.21224 18.30797 18.2427 18.16332 18.22243 18.14845 17.99861 17.51454 16.98523 16.44906 17.2359 16.12344 14.32982 12.62368 11.82952 11.82806 11.78066 11.78624 11.7598 11.78322 12.35993 13.01463 15.78242 16.71789 17.10504 17.5093 17.80666 17.8399 17.78774 17.81918 18.22376 18.25876 18.2505 18.21362 17.95348 18.12847 17.79762 17.88962 17.98994 18.15867 18.32497 18.29675 18.09117 18.15502 18.02149 17.90026 17.75124 17.68385 17.89045 17.97072 17.9084 17.78311 17.78074 17.65284 17.56877 17.57675 17.56218 17.42484 17.29845 17.41938 17.54112 17.66167 17.72501 17.67271 17.62887 17.71146 17.92861 17.75023 17.38946 17.49849 17.62059 17.7416 17.85877 17.82219 17.9183 17.95006 17.63973 17.65634 17.61962 17.78162 17.53688 17.67159 17.71622 17.74015 17.74805 17.68257 17.58002 17.65503 17.6505 17.73472 17.83039 17.73938 17.60021 17.57682 17.25674 17.44985 17.54424 17.5904 17.69981 17.52999 17.30825 17.26506 17.40498 17.2432 16.9817 17.11094 17.25616 17.076 17.22866 17.37357 17.29021 17.28998 17.32244 17.30526 17.19235 17.0879 17.0736 17.1446 17.00154 16.99511 17.25039 17.20498 17.18234 17.08179 17.2006 17.12607 16.98804 16.92015 16.78455 16.47054 16.74991 16.98397 16.70576 16.78206 16.915 16.97496 16.97574 16.91515 16.92965 16.37164 16.72611 16.891 17.0927 16.89496 16.60901 16.38836 17.14479 17.23557 17.14079 16.77934 16.37223 16.478 16.70299 16.3647
17.7711 17.81132 17.76915 17.77164 17.74417 17.75422 17.70669 17.75698 17.76177 17.73445 17.72366 17.68895 17.73025 17.80594 17.77335 17.71699 17.73349 17.732 17.72116 17.75344 17.72655 17.73668 17.68417 17.71239 17.73685 17.70501 17.66273 17.6827 17.73166 17.7254 17.66915 17.65914 17.63018 17.67109 17.67294 17.66013 17.61193 17.69414 17.73104 17.6878 17.72684 17.74455 17.67885 17.69084 17.6648 17.69157 17.68853 17.75029 17.65099 17.68512 17.68816 17.65974 17.61177 17.62165 17.62442 17.66156 17.66015 17.66394 17.66219 17.64879 17.62233 17.6245 17.5969 17.66202 17.62033 17.58638 17.64853 17.6213 17.63641 17.6288 17.67178 17.64861 17.62004 17.62404 17.66732 17.66936 17.70641 17.70617 17.74823 17.84505 17.66201 17.7748 17.97151 17.97627 18.15763 18.30248 18.13356 18.14724 17.84227 17.81971 17.68891 17.64184 17.68583 17.72595 17.7693 17.92691 17.96962 17.99746 18.17919 18.40459 18.38238 18.22701 17.79403 17.74364 17.67174 17.66218 17.7039 17.65086 17.61446 17.72014 17.71471 17.73536 17.74766 17.76479 17.7061 17.75508 17.78638 17.75885 17.72558 17.81545 17.79082 17.77092 17.6794 17.72208 17.77737 17.69091 17.72361 17.6857 17.69251 17.67206 17.71206 17.67989 17.67721 17.75525 17.73532 17.76088 17.74861 17.75015 17.71934 17.7163 17.74582 17.73793 17.70495 17.74129 17.79531 17.80198 17.79985 17.79025 17.73532 17.74405 17.81025 17.74895 17.73829 17.92092 17.86571 17.9343 17.87409 17.93799 17.97737 17.95931 17.96902 17.97627 18.09537 18.06274 18.02207 18.09052 18.11601 18.12086 18.18674 18.14534 18.17105 18.15685 18.12298 18.20495 18.33374 18.23332 18.09864 18.12974 18.14309 18.12437 18.17918 18.23715 18.16644 18.13683 18.11929 18.15248 18.18492 18.05371 17.57901 16.29089 15.68072 15.06983 15.2287 14.72295 12.87318 11.80935 11.80985 11.81429 11.77842 11.74079 11.74899 12.24382 12.75419 14.16747 16.63109 17.26396 17.5001 17.91804 18.03131 17.95077 17.90387 17.95274 18.16388 18.21474 18.25751 18.11676 17.98048 18.16679 18.01287 17.85859 17.97838 18.10719 18.14559 18.09922 18.10027 17.98738 18.0777 17.80627 17.52212 17.68758 17.83376 17.84074 17.79929 17.88413 17.77278 17.51671 17.33335 17.35928 17.48464 17.51011 17.36721 17.46959 17.59078 17.71206 17.7242 17.66252 17.62509 17.63463 17.95002 17.78059 17.56547 17.48441 17.59018 17.72407 17.85497 18.00973 17.90237 17.8362 17.72676 17.86157 17.86856 17.75805 17.54345 17.68149 17.84584 17.82742 17.71063 17.87273 17.66664 17.5365 17.46345 17.91521 17.88914 17.80523 17.585 17.33957 17.04643 17.39402 17.37618 17.46648 17.60133 17.51336 17.04168 16.9115 17.0738 17.34824 17.30899 17.30431 17.2366 17.11553 17.33639 17.32171 17.32566 17.23075 17.20114 17.2951 17.14808 17.02835 16.93695 17.11129 17.18771 17.27802 17.29379 17.28677 17.25016 17.203 16.94807 16.90338 16.90256 16.92454 16.9664 16.643 16.79279 16.81537 16.69881 16.87864 16.84337 16.89281 16.76492 16.61259 16.44543 16.54943 16.67124 16.7661 16.93628 16.8407 16.64082 16.52692 16.915 17.03152 17.0359 16.92766 16.80502 16.76116 16.78723 16.49362
17.77394 17.70163 17.7681 17.75446 17.79347 17.8218 17.74064 17.77118 17.71996 17.77714 17.79297 17.70899 17.76821 17.81258 17.80087 17.71597 17.7309 17.79635 17.77863 17.7078 17.73012 17.69988 17.72132 17.7165 17.7488 17.78078 17.6693 17.79759 17.74232 17.75294 17.65066 17.69658 17.65419 17.70544 17.61424 17.61399 17.66486 17.64852 17.68599 17.69838 17.65511 17.65744 17.68612 17.71742 17.68795 17.68435 17.65954 17.62307 17.72177 17.6849 17.71213 17.66038 17.70728 17.68515 17.63118 17.59828 17.64572 17.67859 17.68701 17.63769 17.65023 17.6256 17.57444 17.61078 17.61055 17.55986 17.66885 17.71489 17.66055 17.6565 17.68744 17.6787 17.63116 17.63099 17.72297 17.64329 17.66496 17.65915 17.74414 17.8104 17.64438 17.68498 17.92802 18.07361 18.20449 18.13686 17.81833 17.73857 17.66397 17.70144 17.74063 17.69148 17.71162 17.74963 17.8191 17.93235 17.95374 18.1204 18.17982 18.23289 18.26773 18.27363 17.75699 17.79146 17.76233 17.69468 17.67649 17.69376 17.71238 17.74673 17.65674 17.69441 17.71746 17.72256 17.72443 17.71768 17.77348 17.86785 17.77825 17.76567 17.86744 17.80734 17.73562 17.76789 17.71671 17.72194 17.63275 17.70764 17.71801 17.739 17.74207 17.73372 17.71364 17.72174 17.71148 17.69006 17.71563 17.72598 17.79654 17.84047 17.8887 17.78393 17.76911 17.7939 17.77943 17.80886 17.79567 17.7329 17.73735 17.75895 17.82472 17.77826 17.77912 17.86974 17.89466 17.89438 18.02313 18.01171 17.97036 17.96342 17.98046 17.97346 18.04588 18.02765 18.08794 18.10695 18.065 18.08904 18.06941 18.14084 18.19373 18.19252 18.13745 18.13226 18.08236 18.17072 17.94804 17.90509 17.98805 18.11353 18.1335 18.14106 18.12297 18.14511 18.17221 18.21059 18.17798 18.08678 17.49989 16.52774 14.5845 13.80099 13.26777 12.60356 11.67877 11.79884 11.79709 11.8022 11.81147 11.76352 11.79959 13.17405 14.85014 15.85019 17.17928 17.79173 18.06131 17.98749 18.10522 18.09853 18.06725 18.20975 18.38661 18.27398 18.16146 18.19989 18.22221 18.05654 17.92821 17.87953 17.88042 18.11215 18.25527 18.03026 18.01825 18.05704 18.12205 18.12229 17.91083 17.74204 17.78704 17.76895 17.75975 17.80528 17.79684 17.68362 17.6272 17.5392 17.67792 17.62265 17.48747 17.55205 17.64441 17.74001 17.48664 17.53822 17.55491 17.56485 17.70284 17.96953 17.84482 17.67107 17.63021 17.67355 17.79992 17.84353 17.83868 17.81726 17.85584 17.8795 17.95325 17.77622 17.71199 17.79141 17.9132 17.83566 17.86014 17.92468 17.72717 17.54196 17.79051 17.8167 17.81426 17.69794 17.30874 17.16017 17.11737 17.44568 17.36442 17.42517 17.46234 17.33634 17.12386 17.29647 17.10531 17.3026 17.25002 17.28068 17.19325 17.18913 17.23123 17.35841 17.39473 17.44877 17.45425 17.09161 17.28021 17.03788 16.98668 17.20636 17.24889 17.16534 17.09779 17.17368 17.29302 17.26673 17.00221 16.94672 16.95673 17.00712 17.00569 16.97562 16.93083 16.75472 16.91908 16.87285 16.78443 16.9058 16.77603 16.61068 16.51774 16.75089 16.84164 16.77253 16.84514 16.80573 16.73023 17.15031 17.09061 17.04815 17.00438 16.96353 16.80672 16.64407 16.68468 16.65479
17.81191 17.73376 17.77491 17.72939 17.76467 17.71335 17.76586 17.72166 17.74709 17.77394 17.73135 17.66106 17.7606 17.81242 17.77387 17.83115 17.85019 17.75241 17.75126 17.75645 17.76112 17.72245 17.70899 17.72255 17.72452 17.731 17.73402 17.69226 17.70044 17.69579 17.6984 17.69159 17.71478 17.69683 17.71053 17.63892 17.66331 17.63952 17.66567 17.71082 17.72725 17.70924 17.68177 17.64831 17.75663 17.72772 17.65577 17.63617 17.77051 17.74332 17.67235 17.67692 17.69643 17.71567 17.70871 17.67827 17.68081 17.71109 17.69822 17.64955 17.64121 17.64138 17.58935 17.63153 17.67697 17.66223 17.69955 17.64452 17.64675 17.68847 17.61074 17.64966 17.60626 17.73566 17.68112 17.62272 17.62176 17.75799 17.86432 17.78197 17.84323 17.73849 17.80205 18.03443 17.98451 17.84083 17.78613 17.60632 17.76121 17.81568 17.8495 17.7913 17.76863 17.75688 17.75837 17.84773 17.90821 18.06934 18.05067 18.06425 18.1028 18.06162 17.81085 17.76676 17.71588 17.70718 17.75911 17.77719 17.75788 17.78809 17.68398 17.66609 17.71819 17.79774 17.75076 17.80615 17.85742 17.79463 17.79663 17.79553 17.70928 17.70037 17.81489 17.71444 17.73142 17.68567 17.72632 17.72752 17.71205 17.78495 17.74324 17.75164 17.75164 17.79583 17.74877 17.76417 17.74547 17.73878 17.75355 17.81404 17.88243 17.89809 17.8306 17.68138 17.72733 17.78504 17.79238 17.78618 17.78028 17.83325 17.84553 17.91228 17.89808 17.899 17.89132 18.00102 18.02785 18.02459 18.01104 18.01323 18.07716 18.01885 18.07206 18.00529 18.08464 18.10239 18.04027 18.00451 18.00736 18.03833 18.12841 18.15259 18.15755 18.09009 17.93768 17.89855 17.94699 17.8868 17.8468 17.92567 18.13381 18.21826 18.09705 18.15149 18.22505 18.15054 18.10666 18.03284 17.37318 16.32997 14.21797 13.15011 12.16877 11.48532 11.50228 11.68428 11.83391 11.851 11.80606 11.81664 12.98807 14.97175 16.26354 16.80184 18.01902 18.26307 18.14591 18.01585 18.13665 18.12899 18.11485 18.10328 18.21986 18.16488 18.16961 18.21986 18.26147 18.01629 17.85762 17.40162 17.70561 18.18153 18.20283 18.02601 17.99451 18.00577 18.03091 18.07712 18.1641 18.0034 17.967 17.90301 17.78373 17.61224 17.44393 17.5069 17.70035 17.82888 17.80596 17.7282 17.62544 17.67392 17.73661 17.66039 17.3942 17.4692 17.55657 17.63919 17.70023 17.79644 17.94212 17.92237 17.82223 17.79003 17.78015 17.89488 17.79105 17.78969 17.81554 17.77661 17.88143 17.96043 17.9106 17.71238 17.75557 17.82958 17.96604 17.66034 17.54898 17.46718 17.66503 17.67745 17.54406 17.44857 17.40956 17.54072 17.62103 17.35365 17.2512 17.30405 17.36111 17.30238 17.33904 17.27482 17.00477 17.25379 17.32275 17.25941 17.34166 17.13152 17.01899 17.15471 17.43037 17.46795 17.41192 17.40697 17.30049 17.19192 17.08948 17.05472 16.98508 17.24082 17.2132 17.25317 17.21031 17.19688 17.03232 16.98758 16.95556 16.99302 16.83944 16.8735 16.91399 16.76856 16.91262 16.83019 16.73239 16.78238 16.76351 16.64597 16.76998 16.88247 16.94902 16.77242 16.7307 16.84973 16.84834 17.39039 17.23169 17.21502 17.07787 16.80132 16.62776 16.65889 16.60513 16.64141
17.77617 17.73829 17.7654 17.76009 17.71942 17.79398 17.74722 17.72304 17.727 17.80255 17.7852 17.83911 17.85241 17.78082 17.74026 17.80455 17.74297 17.76018 17.71862 17.7694 17.70103 17.71027 17.721 17.74012 17.76699 17.6846 17.68459 17.70563 17.6882 17.6569 17.70173 17.69524 17.64469 17.72053 17.66826 17.65102 17.67716 17.68994 17.72199 17.66855 17.63085 17.63957 17.62964 17.64017 17.66926 17.68811 17.72 17.73438 17.72814 17.70011 17.67736 17.67111 17.66159 17.66426 17.6974 17.63009 17.63315 17.66601 17.63733 17.66534 17.65702 17.6976 17.71584 17.75856 17.68688 17.69934 17.68381 17.62181 17.609 17.65162 17.65457 17.64907 17.68987 17.67519 17.64596 17.67612 17.67898 17.75677 17.96878 17.85666 17.85822 17.79688 17.85205 17.88263 17.78128 17.77801 17.84021 17.61689 17.72088 17.72094 17.77019 17.78778 17.77935 17.72852 17.73314 17.78315 17.87719 17.99034 17.99696 17.97479 17.94624 17.8165 17.80342 17.83952 17.8963 17.79364 17.77297 17.77382 17.71749 17.68783 17.69207 17.70626 17.71103 17.72502 17.71003 17.69737 17.86058 17.78075 17.79882 17.74258 17.76207 17.72636 17.77833 17.70759 17.70272 17.70141 17.75607 17.74852 17.73707 17.79385 17.7527 17.73223 17.77342 17.75091 17.85865 17.8463 17.74914 17.77272 17.7637 17.78332 17.77311 17.81496 17.74321 17.78986 17.79739 17.78696 17.83164 17.80976 17.82738 17.85568 17.80693 17.83583 17.85664 17.91537 17.88454 17.96544 17.98396 18.04282 18.0343 18.01123 17.97046 17.99687 18.03176 18.15199 18.12306 18.1097 18.05929 17.85833 17.78292 17.55104 18.03485 18.12568 18.14839 18.03638 17.74055 17.79234 17.80132 17.76449 17.77962 17.82691 18.08903 18.10316 18.01404 17.5186 17.51105 17.53702 17.60172 17.58864 16.64242 15.57981 13.3324 12.17941 11.55486 11.45904 11.49955 11.57525 11.71976 11.9083 11.90805 12.6715 14.24247 15.95347 16.86634 17.13231 18.23038 18.40409 18.26934 18.24524 18.16007 18.14655 18.1306 18.10996 17.9585 17.89614 17.99481 18.04885 18.14769 18.12306 18.05217 17.66871 17.55976 18.01897 18.20903 18.0933 18.05428 18.04836 18.02459 17.88813 17.70111 17.84139 17.90307 17.91687 17.85011 17.46841 17.4354 17.48525 17.68796 17.86363 17.82308 17.80322 17.75083 17.71531 17.62938 17.58031 17.26105 17.29343 17.43795 17.63014 17.81609 17.69973 17.79314 17.91333 17.99938 17.92986 17.93206 17.90133 17.81527 17.79833 17.74069 17.73431 17.73725 17.84832 17.92511 17.68574 17.67761 17.83455 17.8964 17.66086 17.66651 17.61213 17.48665 17.48427 17.3911 17.01199 17.2322 17.30507 17.40006 16.99819 17.18037 17.26752 17.37577 17.42418 17.2964 17.40015 17.03766 17.04947 17.28855 17.47579 17.32085 17.26743 17.3654 17.27013 17.30393 17.3784 17.42415 17.43418 17.39264 17.25094 17.42705 17.16069 16.73198 17.29013 17.32521 17.28356 17.2039 17.11857 17.02568 16.95646 16.92542 16.94813 16.86289 16.89357 16.83202 16.74217 16.97791 16.96841 16.72569 16.77376 16.80143 16.73229 16.96003 16.9599 16.90706 16.56888 16.56547 17.05435 17.15145 17.35569 17.3209 17.26517 17.22742 16.9418 16.77371 16.70391 16.61584 16.64206
17.77979 17.73264 17.75342 17.70541 17.60656 17.63284 17.73799 17.81709 17.79427 17.76255 17.76195 17.74888 17.66031 17.78484 17.7518 17.6514 17.69989 17.74376 17.7323 17.7683 17.70686 17.66583 17.68645 17.65261 17.66884 17.66447 17.6586 17.68244 17.68927 17.72627 17.61289 17.72555 17.69937 17.65684 17.69012 17.71986 17.74315 17.69677 17.66003 17.71223 17.68675 17.65291 17.65888 17.67971 17.67605 17.79396 17.7941 17.76091 17.68795 17.7326 17.73475 17.7121 17.65505 17.69376 17.7188 17.62655 17.654 17.66235 17.62519 17.6382 17.65058 17.71412 17.74824 17.74529 17.69713 17.7142 17.67459 17.66227 17.63386 17.67674 17.74717 17.85813 18.00436 17.8298 17.635 17.67898 17.7124 17.73731 17.74749 17.80625 17.80335 17.80923 17.78512 17.75473 17.60531 17.67675 17.70268 17.69022 17.71554 17.71507 17.75695 17.78119 17.76281 17.79547 17.84093 17.98299 17.86432 17.81242 17.87444 17.89175 17.8386 17.79455 17.79573 18.099 17.95958 17.79301 17.82633 17.87425 17.79764 17.75485 17.67502 17.67461 17.6938 17.69448 17.81344 17.78498 17.85857 17.8125 17.83676 17.77675 17.75959 17.75755 17.78005 17.77389 17.80989 17.80355 17.78385 17.73535 17.77128 17.81061 17.89675 17.82413 17.78405 17.74418 17.82311 17.80838 17.74086 17.84667 17.7858 17.75558 17.80003 17.72302 17.73564 17.78293 17.86143 17.80977 17.82696 17.85653 17.86361 17.8863 17.88458 17.84126 17.82257 17.91602 17.95635 17.97368 18.00638 18.07029 17.99785 18.01386 17.99651 18.07403 18.1002 18.10907 18.17814 18.13876 18.07372 17.95958 17.92069 17.95894 18.09089 18.10118 18.14332 18.04375 17.7868 17.98957 17.63634 17.76879 17.62955 17.6713 18.11688 17.90796 17.68335 17.33522 16.63872 16.40635 16.46218 16.50529 15.84169 14.84876 12.68735 11.81924 11.64638 11.55506 11.59257 11.65863 11.83879 11.98813 12.79913 13.9927 15.33428 16.48873 17.41614 17.45996 17.93065 18.37617 18.46459 18.37354 18.22943 18.14032 18.1572 18.17937 17.7922 17.65759 17.79438 17.9454 18.07248 18.17665 18.16926 17.99804 17.82907 17.88223 17.78477 18.04395 18.045 18.06554 18.0409 17.96416 17.88134 17.83419 17.82489 17.83563 17.84497 17.82615 17.61225 17.59713 17.65152 17.8356 17.81134 17.7911 17.86448 17.58082 17.61421 17.68198 17.38677 17.48895 17.58693 17.73821 17.88959 17.90245 17.71607 17.7403 17.91273 17.87723 17.95857 17.94591 17.87335 17.77679 17.80239 17.87177 17.78709 17.74204 17.71978 17.71476 17.81968 17.8054 17.74916 17.74879 17.76527 17.54629 17.51964 17.32413 17.28041 17.07744 17.01908 16.97427 17.21905 17.07483 17.14623 17.23524 17.33106 17.40663 17.39065 17.23234 17.07144 16.88128 17.27142 17.33342 17.35224 17.04652 17.26703 17.47871 17.27751 17.31639 17.43913 17.36845 17.39911 17.38229 17.13749 17.03679 16.96022 17.41504 17.4196 17.3319 17.21375 17.21073 17.10787 17.02798 17.0032 17.01722 17.00342 16.91901 16.86638 16.78276 16.95888 16.88514 16.71947 16.79136 16.80082 16.77206 16.62121 16.72486 16.54682 16.56239 16.8019 17.04843 17.21871 17.33014 17.24533 17.21684 17.30449 17.04229 16.94649 16.66115 16.7243 16.70191
17.73965 17.74689 17.76609 17.7436 17.67217 17.64795 17.70446 17.82052 17.76447 17.72526 17.78104 17.76508 17.75863 17.80695 17.79324 17.72492 17.74633 17.71663 17.77229 17.749 17.68671 17.73536 17.75556 17.62488 17.68085 17.77712 17.76244 17.7376 17.7164 17.73088 17.71689 17.7343 17.64991 17.67546 17.68015 17.77517 17.73852 17.70645 17.72068 17.64153 17.6881 17.68417 17.66015 17.67297 17.67681 17.77072 17.69356 17.74986 17.77054 17.71895 17.70929 17.72278 17.69909 17.74608 17.7477 17.75388 17.68795 17.70084 17.67212 17.72739 17.67105 17.65336 17.73537 17.80136 17.71105 17.66457 17.69649 17.69412 17.71378 17.73519 17.6822 17.78166 17.88003 17.75359 17.66739 17.75022 17.82413 17.80022 17.72868 17.71466 17.72019 17.65285 17.64191 17.72841 17.75478 17.82748 17.78162 17.73714 17.78643 17.78063 17.79343 17.80071 17.78293 17.79218 17.90906 18.08891 18.26052 18.00274 17.83724 17.77771 17.85694 17.80609 17.79221 18.03127 17.90351 17.8753 17.83221 17.82151 17.79518 17.77787 17.64876 17.67158 17.7237 17.84157 17.8067 17.82616 17.81731 17.75736 17.77661 17.81519 17.81466 17.78677 17.80281 17.81182 17.81965 17.81505 17.74907 17.75598 17.78508 17.91963 17.76397 17.76058 17.75352 17.80363 17.80507 17.70316 17.70181 17.8177 17.77494 17.79207 17.80807 17.78835 17.80203 17.79476 17.85047 17.8712 17.85855 17.79067 17.87885 17.83 17.8345 17.85205 17.86051 18.03174 17.9891 18.02239 18.02906 17.99323 18.07878 18.11755 18.09345 18.0919 18.17275 18.17216 18.15357 18.17636 18.078 18.16361 17.9244 17.93577 18.09379 18.07919 18.10922 18.13497 18.08556 18.08038 18.02809 17.80506 17.56532 17.74112 17.99729 17.81691 17.67761 17.42097 16.46555 15.48087 15.32349 15.38652 14.80464 14.05786 12.07192 11.53688 11.37709 11.44257 11.71744 11.7796 11.94307 12.70305 13.92517 15.17679 16.44423 17.08538 17.94321 17.81468 18.09206 18.26408 18.33756 18.32225 18.20057 18.08553 18.13173 18.17484 17.74772 17.50806 17.87098 17.72082 18.04698 18.18628 18.20244 17.78797 18.11136 18.08549 18.08342 17.96001 17.9904 18.05298 18.07186 18.06778 18.06873 18.07399 17.90336 17.80478 17.82697 17.8624 17.67084 17.6302 17.68522 17.82534 17.88752 17.80014 17.72161 17.71016 17.70452 17.7197 17.5184 17.72612 18.09985 18.17592 18.06074 18.12687 17.8775 17.78714 17.7508 17.85168 17.94341 17.91526 18.06048 17.85345 17.89344 17.96353 17.80396 17.75955 17.70292 17.62192 17.79981 17.82429 17.76688 17.68395 17.72408 17.65678 17.58071 17.38075 17.32068 17.2312 17.12149 16.96203 16.99102 17.08669 17.11438 17.20023 17.28758 17.34107 17.30233 17.26028 17.24912 16.95206 17.05956 17.23927 17.41263 17.24326 17.2669 17.24397 17.30033 17.36711 17.32129 17.26587 17.36189 17.40765 17.23406 17.07045 17.17335 17.38366 17.32896 17.32265 17.32675 17.30764 16.98744 16.69412 17.00391 16.8119 16.64697 16.84062 16.86052 16.86171 16.87171 16.64129 16.64177 16.57025 16.552 16.46134 16.47985 16.51266 16.47565 16.5512 16.72166 16.70093 16.90451 17.2361 17.05168 17.0228 16.78679 16.5439 16.79459 16.63067 16.78508 16.33372
17.78144 17.76498 17.70047 17.73314 17.65494 17.63626 17.7596 17.74196 17.75692 17.73055 17.72197 17.78589 17.72474 17.77403 17.81549 17.75424 17.6928 17.66643 17.68685 17.74182 17.6706 17.70796 17.68586 17.63035 17.74398 17.79596 17.77355 17.75638 17.70112 17.76378 17.68839 17.68673 17.64979 17.63502 17.66251 17.68521 17.71582 17.73301 17.76327 17.728 17.68249 17.65739 17.66203 17.68846 17.68256 17.71143 17.69538 17.69697 17.7351 17.69736 17.76308 17.71997 17.69286 17.66626 17.67436 17.6556 17.7673 17.70298 17.66953 17.74643 17.68732 17.65722 17.71997 17.7369 17.75315 17.79765 17.74256 17.68631 17.62355 17.69138 17.69161 17.66626 17.77474 17.80477 17.66873 17.7653 17.88991 17.92972 17.66393 17.62528 17.68633 17.71681 17.65172 18.02431 18.1721 18.04826 17.96809 17.80002 17.88496 17.82386 17.78732 17.87686 17.81485 17.79883 18.13408 18.45782 18.35475 18.34618 18.35536 17.91578 17.83647 17.86029 17.79029 17.88274 17.82505 17.86829 17.8248 17.81099 17.83846 17.71491 17.68496 17.71618 17.7361 17.79232 17.80011 17.85661 17.88561 17.74278 17.82993 17.82897 17.8555 17.86603 17.82237 17.78971 17.81075 17.7758 17.76981 17.76904 17.85893 17.74996 17.75744 17.77021 17.79196 17.74805 17.74079 17.74104 17.83145 17.88469 17.77209 17.7934 17.79581 17.80958 17.8127 17.80673 17.75356 17.80992 17.85692 17.89181 17.83964 17.8256 17.87315 17.89632 17.9395 17.98263 17.96882 18.11534 17.98859 18.03159 18.07727 18.09208 18.09953 18.13904 18.16186 18.13774 18.1878 18.15984 18.11532 18.10698 17.97726 18.06713 18.10153 18.20065 18.16179 18.03048 17.97907 17.79353 17.61028 17.51968 17.55411 17.73593 17.961 17.8968 17.76527 17.45241 16.3957 15.32882 14.36854 14.24701 13.84767 13.00143 11.85247 11.57679 11.36214 11.59212 11.70312 11.84084 11.96467 12.74461 14.94229 16.20939 17.10804 17.72051 18.14813 18.16754 18.06279 18.11134 18.1497 18.17361 18.10502 18.0384 18.05144 18.2323 17.78722 17.67985 17.65771 17.74294 18.06553 17.79059 18.12913 18.15105 18.04074 18.10883 18.14133 18.02715 17.94206 18.03379 18.14317 17.9311 17.90001 17.91168 17.93006 17.92783 17.82501 17.85231 17.71111 17.76093 17.85061 17.89326 17.93448 17.83355 17.77039 17.74933 17.76334 17.78369 17.7925 17.91055 17.85921 18.18563 18.11822 17.87791 17.53745 17.97445 17.83196 17.8137 17.89106 17.95779 17.97578 17.90989 17.96118 17.95606 17.82192 17.7683 17.75538 17.729 17.3148 17.59412 17.68122 17.7038 17.68532 17.61978 17.63841 17.4599 17.40309 17.28946 17.1262 16.96498 16.92608 17.03604 17.17737 17.13669 17.14057 17.13648 17.13061 17.27352 17.3392 16.99968 16.78934 16.9755 17.39512 17.41494 17.38571 17.29898 17.35201 17.23932 17.09638 17.27044 17.42789 17.38573 17.3623 17.19682 17.29692 17.34726 17.2939 17.36309 17.32037 17.3546 17.3207 17.13464 17.05819 16.68577 16.68589 16.80131 16.77465 16.95694 16.85477 16.63773 16.62773 16.64269 16.67669 16.48286 16.40734 16.57016 16.58996 16.4459 16.2756 16.31594 16.65766 17.00124 17.00234 16.97467 16.8271 16.79573 16.76599 16.61894 16.37544 16.10649
17.77552 17.75918 17.72595 17.75299 17.729 17.75743 17.78053 17.71754 17.75124 17.72158 17.76018 17.75285 17.72998 17.75326 17.72476 17.75522 17.7317 17.76287 17.71133 17.74175 17.72606 17.69881 17.73835 17.75631 17.75534 17.75019 17.73462 17.78691 17.73022 17.72847 17.68998 17.69198 17.69293 17.66798 17.63678 17.68387 17.81211 17.77537 17.77361 17.73174 17.6745 17.74374 17.69193 17.69375 17.67163 17.66841 17.68349 17.71479 17.73155 17.71444 17.67832 17.70283 17.6967 17.64462 17.65618 17.63794 17.68406 17.68839 17.66556 17.64321 17.72025 17.67071 17.67756 17.73852 17.68767 17.77895 17.79099 17.68603 17.68125 17.69189 17.71821 17.71637 17.79227 17.74503 17.71897 17.74189 17.68216 17.6672 17.67884 17.7035 18.02925 18.07394 17.99318 18.19691 18.3267 18.26262 18.22745 17.83875 17.73968 17.96668 17.74967 17.8539 17.935 17.81454 18.15042 18.33277 18.37288 18.49396 18.39709 18.01543 17.80921 17.72113 17.73906 17.83025 17.75041 17.80827 17.84088 17.83479 17.81575 17.75842 17.80727 17.76952 17.73672 17.79269 17.83936 17.88328 17.85991 17.81203 17.83179 17.83595 17.82384 17.79593 17.78399 17.81496 17.84626 17.78626 17.78126 17.79055 17.73852 17.72441 17.76125 17.78658 17.75759 17.79756 17.81819 17.82205 17.80725 17.84015 17.7991 17.74672 17.80052 17.78299 17.80204 17.80348 17.8374 17.81438 17.88478 17.86399 17.92519 17.96617 17.90991 17.88815 17.97251 18.00833 18.01796 18.07828 18.0437 18.06899 18.10306 18.00714 18.07388 18.1079 18.16678 18.16514 18.15175 18.11719 18.06075 18.14936 18.14356 18.12688 18.14917 18.14773 18.16654 18.07339 17.66848 17.86651 17.80905 17.4912 17.55572 17.89639 18.02533 17.98131 17.90107 17.38966 16.32648 15.25941 14.1921 13.24537 12.89733 11.98125 11.55087 11.52832 11.52891 11.63785 11.72307 11.78264 12.42991 13.38615 15.689 16.81495 17.44364 17.70324 17.94086 18.0466 18.07854 18.092 18.04272 18.06722 18.07793 18.09903 18.28072 18.27085 17.93897 17.98558 17.90727 17.81488 17.83529 17.45533 17.90814 17.87812 17.85935 18.00318 17.98816 17.83678 17.90185 18.00541 18.10338 17.78048 17.73557 17.75306 17.7718 17.79122 17.81462 17.81763 17.55368 17.70172 17.78651 17.8131 17.84493 17.83164 17.79774 17.58989 17.49055 17.68724 17.6123 17.8737 17.82695 17.85938 17.99651 17.96588 17.96576 17.97695 17.99809 17.90676 17.84249 17.81948 17.92637 17.88498 17.9825 17.90789 17.86917 17.86714 17.90475 17.66581 17.41314 17.54624 17.59959 17.64129 17.66744 17.64019 17.54146 17.39017 17.28556 17.09559 17.0085 16.91802 16.84985 16.90598 16.88587 16.92927 17.09199 17.12435 17.03941 17.16955 17.21313 17.2219 16.88277 16.99633 17.14935 17.16542 17.37024 17.24964 17.34548 17.25887 17.31873 17.345 17.2927 17.23731 17.36126 17.28198 17.31915 17.29228 17.29057 17.29698 17.30059 17.29486 17.24979 17.32874 17.09911 16.90581 16.6785 16.77656 16.93375 16.91561 16.8692 16.91322 16.87291 16.9674 16.76156 16.63039 16.66725 16.63639 16.65674 16.63104 16.48478 16.27223 16.42436 16.75748 16.78434 16.934 16.62462 16.75124 16.92381 16.50339 16.5892 16.61321
17.82246 17.82261 17.80458 17.78643 17.76009 17.73198 17.77247 17.76828 17.72185 17.73812 17.80061 17.70649 17.74221 17.74282 17.75795 17.77101 17.69366 17.72227 17.71826 17.78075 17.76831 17.64993 17.69732 17.78951 17.75783 17.76947 17.75412 17.69464 17.72846 17.69822 17.75541 17.77667 17.66523 17.65162 17.75114 17.73416 17.71989 17.63106 17.72284 17.74841 17.84167 17.74832 17.69156 17.74127 17.74236 17.69897 17.71364 17.77639 17.77306 17.72016 17.75052 17.72109 17.7328 17.73476 17.65607 17.62903 17.59964 17.68721 17.65387 17.69345 17.73587 17.68134 17.63612 17.68707 17.67641 17.64849 17.67639 17.66562 17.63971 17.70508 17.64922 17.66458 17.84771 17.85012 17.74783 17.73686 17.71601 17.67793 17.71067 17.74787 17.98506 18.16563 18.06291 18.14925 18.26241 18.23072 18.10592 17.81231 17.68478 17.89821 17.71792 17.71102 17.81602 17.87466 17.96214 18.24013 18.04242 18.13186 18.12931 17.95981 17.80997 17.77062 17.77838 17.78167 17.78168 17.78593 17.86441 17.87141 17.82388 17.8266 17.81031 17.85118 17.81221 17.85018 17.87097 17.8449 17.84932 17.78573 17.83604 17.81307 17.85957 17.77068 17.81878 17.78883 17.83775 17.79474 17.8188 17.74899 17.77209 17.80825 17.80914 17.83563 17.81516 17.78963 17.79098 17.7945 17.80567 17.78226 17.79615 17.78386 17.80336 17.75614 17.78103 17.84838 17.78915 17.8005 17.88276 17.83284 17.91673 17.88738 17.88422 17.89726 18.03853 17.94838 18.00686 18.00936 18.0601 17.9978 17.99545 18.0848 18.04981 18.0568 18.08333 18.09711 18.10794 18.05127 18.06804 18.09541 18.05192 18.15802 18.25274 18.27606 18.22598 18.15726 17.89176 18.02446 17.82271 17.8019 18.0703 18.10512 17.94327 17.88212 17.99219 17.32257 16.24977 15.18063 14.10412 13.01215 12.05548 11.86691 11.81345 11.59005 11.64194 11.73044 11.81429 12.02999 12.86769 14.05757 16.27688 17.40669 17.7752 18.04891 18.32321 18.33403 18.26914 18.36381 18.25787 17.98318 17.92822 18.10905 18.15925 18.13092 18.00639 18.00916 18.01079 17.96037 17.84281 17.70807 17.58457 17.85504 17.82601 17.73468 17.91603 17.74283 17.9229 18.02369 17.98333 17.63119 17.61549 17.66603 17.71761 17.76886 17.79357 17.80482 17.82228 17.6833 17.71733 17.71835 17.78746 17.79457 17.72512 17.52317 17.53022 17.74784 17.62831 17.56524 17.42757 17.64545 17.85773 18.03408 17.89606 17.83941 17.97768 17.88766 17.89306 17.9266 17.9019 17.91994 17.89115 17.86131 17.88616 17.91898 17.9719 17.74631 17.63773 17.62429 17.64149 17.60761 17.61062 17.70935 17.63966 17.43644 17.17283 16.94928 16.88584 16.83156 16.82415 16.94255 16.92015 16.8333 16.9573 16.97028 16.95568 17.18088 17.18585 17.25827 17.27742 17.15121 16.8831 16.98974 17.16715 17.19888 17.34049 17.42986 17.40562 17.43035 17.36861 17.30296 17.32579 17.34395 17.30651 17.19649 17.18125 17.22028 17.20948 17.13939 17.30148 17.33122 17.14819 16.79833 16.56562 16.69332 16.98989 16.89443 16.72031 16.77217 16.57024 17.03093 16.88945 16.82859 16.80513 16.55008 16.55402 16.67135 16.63907 16.42597 16.41155 16.55143 16.62693 16.45978 16.37218 16.35775 16.89548 16.79992 16.40957 16.38902
17.75109 17.86239 17.83 17.78391 17.80517 17.77242 17.72868 17.73277 17.71912 17.77334 17.82779 17.82737 17.73337 17.75947 17.74349 17.79427 17.72034 17.66565 17.75945 17.75836 17.75202 17.74299 17.72811 17.73314 17.74118 17.80751 17.75842 17.6832 17.71814 17.65922 17.73312 17.76622 17.68613 17.65729 17.72107 17.66193 17.68817 17.74566 17.69807 17.74156 17.72399 17.73592 17.77924 17.80771 17.79015 17.77283 17.69313 17.72778 17.75822 17.76625 17.73473 17.7291 17.68483 17.6971 17.64721 17.62562 17.6181 17.63965 17.66574 17.72991 17.67057 17.67083 17.72254 17.67826 17.66277 17.64261 17.69368 17.68689 17.63684 17.66984 17.66885 17.70599 17.73324 17.81265 17.80266 17.81471 17.71683 17.71187 17.73585 17.70646 17.90634 18.21848 18.05033 17.98898 18.0804 18.26983 18.27036 18.12778 18.10382 17.85109 17.8113 17.91186 18.05757 18.24302 18.13637 18.21445 17.75455 17.83465 17.89555 17.85026 17.80711 17.78166 17.81002 17.81476 17.83317 17.85082 17.87042 17.86467 17.87351 17.90598 17.93967 17.88299 17.79271 17.82429 17.83392 17.90628 17.86937 17.84694 17.75732 17.8949 17.8662 17.83616 17.77275 17.80333 17.82069 17.80323 17.82432 17.82957 17.80486 17.8647 17.84993 17.79557 17.74327 17.83004 17.81383 17.83899 17.80342 17.77479 17.82417 17.77578 17.81129 17.81273 17.80551 17.85265 17.85136 17.85097 17.84819 17.90792 17.93779 17.90153 17.89062 17.90445 18.03605 18.006 18.02 17.96859 18.12519 18.02409 17.95471 17.51013 17.59448 17.68264 18.10407 18.11365 18.18616 18.12166 18.11363 18.11061 18.13436 18.21333 18.1654 18.2222 18.20775 18.18474 18.14427 18.12795 17.72353 17.93556 18.08674 18.10756 17.94513 17.79004 17.67584 16.85177 15.695 14.52482 13.3631 12.25966 11.74335 11.62625 11.74815 11.6471 11.60667 11.76923 11.92116 12.89784 13.64387 14.46741 16.71931 17.80917 18.04059 18.28189 18.38649 18.33563 18.39123 18.32829 18.08882 17.91244 17.98104 18.13279 18.18753 18.19428 18.05486 18.03937 18.1221 18.08978 17.80131 17.51211 17.67857 17.87221 17.78132 17.7669 17.86731 17.7959 18.01905 17.89705 17.87004 17.6541 17.6518 17.70337 17.74953 17.75938 17.75755 17.77605 17.83399 17.66905 17.5014 17.58845 17.7534 17.78159 17.67857 17.66323 17.6819 17.70998 17.68994 17.56109 17.48423 17.49056 17.80396 17.9343 17.80131 17.83246 17.89716 17.80042 17.95747 17.9732 17.92785 17.91148 17.96284 18.00229 17.92472 17.90522 17.86989 17.72582 17.62333 17.69254 17.64399 17.59448 17.57148 17.55344 17.50825 17.19887 16.82452 16.68802 16.73589 16.80403 16.75636 16.9523 16.87531 16.87792 16.87112 16.88107 17.13571 17.21221 17.11644 17.2662 17.21043 17.185 17.15566 17.15788 17.16404 17.13774 17.35018 17.35409 17.3573 17.36056 17.30015 17.24879 17.17432 17.20896 17.29295 17.24524 17.17681 17.22082 17.21637 17.15162 17.14581 17.1979 17.15837 17.02251 16.50619 16.67398 17.07367 17.04646 16.53799 16.48066 16.54195 16.93148 17.00605 16.96575 16.82135 16.68326 16.50713 16.54315 16.49287 16.46479 16.45651 16.60803 16.6151 16.45468 16.54499 16.53276 16.73669 16.81089 16.57695 16.64385
17.79116 17.84476 17.83137 17.78943 17.81333 17.78102 17.73436 17.80899 17.74465 17.6731 17.69211 17.73109 17.75417 17.6958 17.77378 17.80388 17.69133 17.70617 17.7048 17.76924 17.76669 17.71282 17.77897 17.76927 17.72344 17.76155 17.70177 17.71572 17.75406 17.64238 17.7285 17.64126 17.67863 17.7408 17.781 17.70471 17.65921 17.69621 17.71732 17.73847 17.80227 17.73887 17.74907 17.70167 17.72462 17.74702 17.79318 17.76685 17.80061 17.78505 17.74203 17.70937 17.77574 17.69915 17.70159 17.70692 17.68886 17.73072 17.69054 17.66374 17.66669 17.7011 17.66342 17.66364 17.70375 17.66433 17.61377 17.64198 17.65466 17.66924 17.65943 17.78077 17.78398 17.92603 17.82238 17.88959 17.8238 17.76031 17.79812 17.69004 17.8866 18.24602 18.15841 18.05905 18.00524 18.04452 18.18056 18.31229 18.32157 17.93259 18.02278 18.196 18.2927 18.28896 18.20806 18.16132 17.88867 17.99529 17.9137 17.88189 17.82579 17.78714 17.82781 17.85317 17.80565 17.8521 17.92047 17.83197 17.86072 17.909 17.88579 17.89962 17.92641 17.88101 17.8687 17.84122 17.84604 17.77367 17.8335 17.7378 17.80948 17.86607 17.77902 17.85083 17.83571 17.78485 17.82827 17.82189 17.84104 17.77697 17.87999 17.85169 17.77217 17.8486 17.72729 17.85852 17.8133 17.84133 17.84105 17.8023 17.82048 17.84592 17.8303 17.8902 17.99026 17.91557 17.95993 17.90462 17.94718 17.91175 17.89317 17.95802 18.01253 18.01554 17.99312 18.04425 18.05649 18.03327 17.89761 17.63754 17.66612 17.60803 18.05845 18.11845 18.15901 18.18108 18.1545 18.14254 18.13395 18.08648 18.14499 18.2419 18.2308 18.14095 18.14498 18.00428 18.03771 18.15854 18.09407 18.06557 17.93039 17.77084 17.60868 17.44299 14.62626 13.3538 12.24471 11.86187 11.80596 11.69941 11.71818 11.69466 11.60458 11.73296 12.22185 13.59562 14.39798 15.22487 16.99663 18.00094 18.21541 18.36399 18.29172 18.21792 18.24019 18.2966 18.27629 17.93904 18.0347 18.10345 18.14142 18.09628 18.12773 17.957 18.08437 18.05948 17.99297 17.67043 17.58565 17.6584 17.79012 17.78739 17.61854 17.87845 17.92942 17.86952 18.09096 17.69543 17.68895 17.72529 17.7238 17.72171 17.72043 17.74738 17.78366 17.58689 17.43892 17.29969 17.6466 17.87824 17.86666 17.77229 17.66359 17.61662 17.61753 17.54164 17.58272 17.67598 17.85483 17.84723 17.81871 17.84547 17.89454 17.77104 17.86297 17.86004 17.91719 17.80933 17.91478 17.93008 17.95318 17.82743 17.72605 17.8253 17.63528 17.57552 17.54314 17.58498 17.56399 17.57113 17.42933 17.25162 16.99264 16.92555 16.87827 16.86731 16.84971 16.9596 16.88577 16.8137 16.74491 16.6949 16.98865 16.99727 17.12602 17.20454 17.22648 17.19754 17.15321 17.19651 17.28484 17.23291 17.13122 17.31643 17.424 17.47889 17.37088 17.29635 17.23034 17.22487 17.24125 17.23768 17.16728 17.16541 17.20216 17.17934 17.14433 17.20835 17.11713 17.1172 17.10433 17.04009 17.1509 17.14018 16.46974 16.43794 16.45188 16.69757 16.88258 17.02953 16.75105 16.65816 16.61908 16.51523 16.43887 16.53089 16.59391 16.66106 16.6168 16.45938 16.57451 16.77002 16.81369 16.75323 16.55429 16.75902
17.77578 17.83038 17.79008 17.82503 17.73551 17.7423 17.74818 17.81506 17.7479 17.6907 17.71283 17.75394 17.73932 17.76538 17.78821 17.70355 17.75786 17.72526 17.67846 17.73417 17.7063 17.75208 17.75084 17.73867 17.78915 17.76568 17.73986 17.82157 17.75001 17.77472 17.66578 17.773 17.77859 17.77324 17.73364 17.70228 17.6818 17.70414 17.76072 17.81443 17.77349 17.73101 17.83395 17.7019 17.69919 17.68979 17.77934 17.85214 17.78468 17.81239 17.79123 17.75971 17.75119 17.70037 17.74946 17.74115 17.70748 17.73776 17.74038 17.73198 17.66467 17.73722 17.68808 17.69771 17.66824 17.65029 17.66933 17.64183 17.63202 17.74416 17.77833 17.7959 17.81259 18.0683 18.11881 17.89206 17.86354 17.8324 17.66433 17.70529 17.71199 17.81729 17.96926 17.80244 17.70999 17.92829 18.1016 18.20528 18.17738 18.08748 17.92153 17.93695 18.16045 18.3468 18.26603 18.22363 18.19558 18.03342 17.93198 17.96435 17.84676 17.81234 17.8478 17.85734 17.8027 17.87876 17.91777 17.85568 17.75594 17.7859 17.81485 17.78381 17.86917 17.89619 17.88623 17.82653 17.77391 17.81078 17.84303 17.80669 17.76115 17.75134 17.82663 17.78878 17.84099 17.7606 17.79359 17.82137 17.78298 17.87907 17.82351 17.79284 17.82775 17.74277 17.84269 17.80574 17.92917 17.83803 17.78629 17.82373 17.90043 17.85229 17.85466 17.86423 17.9205 17.96918 17.89742 17.92103 17.93261 17.93324 17.89599 17.93751 18.0202 18.0431 18.06633 17.9639 17.98126 18.07901 18.09827 18.05841 17.51055 17.70433 18.0687 18.15295 18.20855 18.24798 18.11774 18.06495 18.04466 18.06322 18.05687 18.08699 18.11185 18.16457 18.06692 18.05693 17.92838 18.07043 17.9504 17.8844 17.78575 17.68719 17.5758 17.05985 14.13818 12.67409 11.51653 11.45301 11.60662 11.69069 11.69313 11.69804 11.66226 12.19342 12.94312 14.40117 15.12145 15.85362 17.55069 18.20424 18.34072 18.27284 18.19677 18.12444 18.0896 17.90756 18.16243 17.93585 17.97852 18.12342 18.09248 18.09038 18.09808 18.00625 17.99036 18.10187 18.12749 17.8959 17.61771 17.60386 17.67745 17.63807 17.38282 17.75398 17.66527 17.62478 17.68379 17.74494 17.69063 17.68861 17.68699 17.6849 17.6845 17.73044 17.83185 17.50879 17.47464 17.528 17.76976 17.84522 17.92596 17.7175 17.67808 17.71423 17.74336 17.73638 17.67293 17.63559 17.75165 17.9203 17.8111 17.71696 17.83645 17.86569 17.93305 17.88277 17.77143 17.60847 17.73354 17.86105 17.89918 17.88704 17.72054 17.65967 17.58033 17.69267 17.65867 17.5921 17.56394 17.54346 17.25251 17.29058 17.16682 17.08558 17.00936 16.94148 16.91781 16.97097 16.81909 16.84764 16.81937 16.76015 16.69794 17.20167 17.16196 17.15998 17.19102 17.32944 17.24532 17.28907 17.22065 17.25691 16.94062 17.12539 17.31415 17.31656 17.38617 17.35402 17.25535 17.20186 17.24183 17.21152 17.21589 17.16815 17.13445 17.22011 17.13416 17.09221 17.07878 17.0273 17.10615 16.7868 16.79301 17.046 17.09951 16.29243 16.33876 16.33199 16.85291 17.18663 16.92579 16.83649 16.60006 16.51337 16.55309 16.59086 16.46495 16.47307 16.45931 16.47712 16.60721 16.89329 16.81847 16.74768 16.6559 16.77806
17.77651 17.75302 17.71181 17.8265 17.7946 17.71595 17.70367 17.78757 17.7778 17.71978 17.79508 17.79099 17.75397 17.79517 17.78129 17.77181 17.78453 17.73826 17.79494 17.75468 17.77688 17.80719 17.78298 17.75943 17.81972 17.73222 17.72766 17.7472 17.74674 17.7031 17.76168 17.69059 17.74318 17.77242 17.78817 17.74067 17.76186 17.73638 17.74989 17.70429 17.76285 17.8032 17.73055 17.7397 17.76271 17.73484 17.78869 17.83442 17.79846 17.78394 17.75928 17.70227 17.70378 17.72002 17.77559 17.85748 17.82113 17.75876 17.82607 17.73283 17.73511 17.72959 17.68966 17.71031 17.75292 17.75154 17.70091 17.64975 17.66063 17.67563 17.77941 17.74079 17.85458 17.99125 18.26242 18.05417 18.0199 17.88896 17.78025 17.77446 17.73578 17.73041 17.84682 17.65651 17.74261 17.83941 17.95715 18.0128 18.01477 17.9887 17.8375 17.79122 18.02114 18.31989 18.22727 18.24474 18.19157 17.89442 17.85651 17.94394 17.80606 17.82562 17.89411 17.81138 17.85135 17.94377 17.86123 17.80896 17.80706 17.79944 17.77353 17.86412 17.81044 17.90476 17.87078 17.81388 17.80911 17.81527 17.77144 17.7651 17.82238 17.87396 17.79563 17.7378 17.83318 17.79506 17.88316 17.81536 17.81812 17.86316 17.81656 17.84532 17.78978 17.84551 17.81383 17.85677 17.8581 17.88457 17.81465 17.86798 17.90903 17.85891 17.93445 17.93386 17.95095 17.99503 17.93067 17.88735 17.88229 17.95514 17.96146 17.95422 17.97412 17.96171 17.98169 18.07238 18.0288 18.09028 18.07758 18.08486 18.03774 18.12537 18.13058 18.14885 18.18414 18.21035 18.18664 18.07127 18.05154 18.10283 18.10656 18.17451 18.16911 18.02617 18.06669 18.0508 17.86798 17.79111 17.70909 17.71781 17.74134 17.76867 17.79123 16.89211 13.61419 11.92708 11.39395 11.46053 11.6094 11.67969 11.67472 11.68659 11.74662 12.54941 14.20488 15.41677 15.69785 16.45869 17.89042 18.2909 18.50105 18.42616 18.37074 18.32739 18.33425 18.26627 17.89387 17.96029 18.10159 18.06842 18.00606 18.14021 18.06503 18.06466 18.02641 17.95247 18.11153 18.13988 17.93809 17.74111 17.7192 17.77296 17.94364 17.91072 17.5914 17.56947 17.65742 17.68574 17.67857 17.66691 17.65381 17.64797 17.65319 17.73077 17.80292 17.5259 17.62227 17.70489 17.68761 17.76246 17.84603 17.86247 17.65569 17.79815 17.76498 17.78356 17.72432 17.71852 17.65733 17.72705 17.64279 17.67393 17.71513 17.81479 18.004 17.88921 17.80386 17.42003 17.44538 17.56655 17.69076 17.75159 17.81532 17.72393 17.68294 17.64286 17.6563 17.62068 17.50178 17.62749 17.23648 17.19547 17.21007 17.05382 16.97836 16.9594 16.99752 17.05075 16.86502 16.96102 16.97091 16.91821 16.80599 16.63069 16.86498 16.53585 17.18261 17.18716 17.21172 17.19547 17.02615 17.1305 17.00169 16.58232 16.81317 17.19567 17.36961 17.2796 17.22841 17.21408 17.24188 17.2252 17.19978 17.21292 17.15756 17.21097 17.1236 17.14314 17.08853 16.9945 16.89798 16.76541 16.68221 16.94733 17.15143 16.75145 16.07405 16.49452 16.85874 17.00195 16.99575 16.97173 16.6323 16.6434 16.59806 16.49158 16.51371 16.43752 16.5754 16.42096 16.74786 16.96312 16.45585 16.49827 16.70313 16.81157
17.76636 17.73945 17.82993 17.83555 17.77041 17.76484 17.77722 17.7984 17.8487 17.79865 17.82571 17.75363 17.84073 17.81178 17.8208 17.80224 17.71635 17.75338 17.76 17.74164 17.80914 17.86381 17.74405 17.7364 17.7516 17.74515 17.68908 17.69549 17.71627 17.79099 17.82902 17.79183 17.71366 17.69423 17.72985 17.71026 17.74632 17.77098 17.71935 17.74644 17.74993 17.78549 17.7839 17.75924 17.71823 17.64928 17.79412 17.88888 17.78116 17.70351 17.70955 17.71852 17.68874 17.77488 17.7647 17.89437 17.87455 17.88167 17.79387 17.69103 17.76533 17.69696 17.69799 17.70076 17.69432 17.73584 17.78046 17.75439 17.68858 17.67944 17.7862 17.76828 17.89611 18.06639 18.10872 18.08512 18.06397 17.9452 17.78225 17.74931 17.76758 17.75078 17.76262 17.6625 17.73119 17.74781 17.85732 17.85951 17.87188 17.85859 17.82725 17.99499 18.26634 18.23398 18.15877 18.25213 18.33072 17.7915 17.82374 17.86468 17.83638 17.88543 17.85259 17.88553 17.86503 17.88553 17.84552 17.76726 17.82572 17.78549 17.78394 17.81216 17.74977 17.83487 17.80783 17.81121 17.80264 17.82792 17.8061 17.79137 17.81307 17.80564 17.81643 17.88538 17.88051 17.81225 17.85818 17.78591 17.88759 17.81086 17.8022 17.87454 17.87185 17.84099 17.85542 17.87911 17.86157 17.88925 17.855 17.94596 17.87278 17.91693 17.92939 18.03583 17.97333 17.92059 17.96678 17.95991 17.95543 17.97916 17.93804 18.0075 18.01408 17.96096 18.01745 18.11268 18.11218 18.15127 18.09974 18.07281 18.10324 18.0798 18.14876 18.13485 18.12082 18.13811 18.13529 18.10737 18.12945 18.13039 18.06473 18.10232 18.09293 18.05109 17.9962 17.91344 17.7881 17.72978 17.57811 17.55666 17.57695 17.30844 16.8907 15.79457 12.29036 11.43876 11.46279 11.49764 11.60955 11.66718 11.6638 11.66245 12.20255 13.10724 15.28816 16.3444 16.78815 16.97872 18.08426 18.45275 18.54348 18.45149 18.39164 18.35715 18.35068 18.35248 17.70719 17.88144 18.01307 18.09512 17.94159 17.8369 17.83703 17.88745 17.72222 18.00014 18.03172 17.8035 17.42894 17.45978 17.6061 17.66106 17.80197 17.86823 17.43038 17.71905 17.73771 17.67272 17.61573 17.64065 17.63198 17.6215 17.54734 17.66418 17.78616 17.71373 17.78066 17.82609 17.68457 17.72567 17.78787 17.7897 17.6927 17.65915 17.78921 17.91507 17.97883 17.80559 17.6634 17.61522 17.61873 17.66483 17.68443 17.7557 17.74537 17.69089 17.70706 17.18603 17.17773 17.37156 17.64027 17.72447 17.81488 17.77215 17.7222 17.75459 17.71644 17.60681 17.61589 17.67075 17.39302 17.03274 17.11294 17.0303 16.9894 17.02697 17.12901 17.23302 16.84509 17.03217 17.11179 17.12351 17.03856 16.95714 17.06061 16.95898 17.1693 17.18462 17.16922 17.207 17.33013 17.20935 17.11306 16.74118 16.95225 17.13139 17.13622 17.32974 17.30656 17.28546 17.159 17.15439 16.95423 16.97435 17.22296 17.22033 17.2119 17.12325 17.08681 17.08219 16.78193 16.657 16.66611 16.7418 16.85596 16.8322 16.63633 16.62797 16.61295 16.70192 16.92763 16.89906 16.91471 16.9017 16.37685 16.33674 16.55013 16.55634 16.58343 16.41233 16.3739 16.69497 16.49117 16.52605 16.54782 16.57021
17.75477 17.78928 17.80223 17.76367 17.74064 17.78461 17.81873 17.88471 17.77577 17.71053 17.74011 17.77547 17.78245 17.82852 17.80339 17.78749 17.77806 17.7144 17.69662 17.79372 17.78625 17.82994 17.75472 17.7455 17.83927 17.80944 17.78153 17.77107 17.74105 17.81276 17.7523 17.7083 17.7237 17.72118 17.73405 17.70881 17.65939 17.7132 17.74506 17.71504 17.68523 17.75733 17.76612 17.75486 17.74051 17.70486 17.79475 17.71587 17.76369 17.83394 17.76292 17.76259 17.73886 17.80241 17.83303 17.79473 17.82783 17.94113 17.84239 17.75147 17.70189 17.6801 17.69227 17.6723 17.69523 17.7281 17.78889 17.74463 17.79424 17.80413 17.79618 17.69797 17.67341 17.86021 18.13773 17.87201 17.90912 17.86787 17.71892 17.72723 17.74804 17.73613 17.73932 17.73254 17.71016 17.75963 17.80796 17.83391 17.83455 17.86019 18.06124 18.14715 18.2923 18.24221 18.21503 18.20195 18.11511 17.73104 17.76616 17.81059 17.77029 17.78471 17.88963 17.78533 17.87071 17.92516 17.85302 17.79733 17.80744 17.92467 17.92012 17.79659 17.87891 17.83898 17.77892 17.80113 17.84633 17.87016 17.84656 17.88074 17.81838 17.79015 17.83742 17.84842 17.9208 17.87425 17.86796 17.82717 17.86043 17.83766 17.88865 17.84008 17.84841 17.8182 17.88008 17.84739 17.84282 17.87705 17.89289 17.94208 17.92891 17.99406 17.97101 17.98509 18.00588 17.93295 18.02693 18.02162 17.93952 17.99713 18.01154 18.05528 18.0398 18.0379 17.97868 18.08504 18.13399 18.06733 18.06963 18.12226 18.12062 18.07701 18.10267 18.05042 18.12253 18.16771 18.15009 18.19513 18.21961 18.0329 17.64062 17.62146 17.8636 18.09035 18.00795 17.99961 17.9344 17.75181 17.66744 17.57415 16.56956 16.0055 15.58518 14.81279 11.49508 11.50717 11.53385 11.56053 11.61429 11.65628 11.65244 12.0574 13.11532 14.47116 16.5031 17.4019 18.03765 18.00825 17.96542 18.53111 18.63345 18.59361 18.42904 18.48394 18.37223 18.22675 17.84435 17.93856 18.03123 18.04236 17.67431 17.65251 17.68911 17.95235 18.13501 18.14507 18.12592 18.06519 17.9172 17.71122 17.51167 17.52605 17.664 17.78699 17.62852 17.6217 17.62232 17.58259 17.36321 17.59347 17.59952 17.63104 17.8715 17.60505 17.78041 17.88826 17.89287 17.81992 17.75367 17.79101 17.72757 17.65596 17.58562 17.72696 17.74525 17.77979 17.90561 17.6899 17.66451 17.6613 17.68911 17.63266 17.66778 17.80513 17.74567 17.58074 17.60571 17.24822 17.22569 17.40921 17.66599 17.7126 17.5683 17.49962 17.72387 17.50884 17.62155 16.90466 17.14018 17.71208 17.67251 16.92274 17.08723 17.0793 16.98389 17.10722 17.03446 17.00371 17.13554 16.87589 17.08326 17.17466 17.19376 17.0369 17.00313 17.00011 17.08576 17.10343 17.13395 17.10293 17.18914 17.1336 17.08052 16.98945 17.12701 17.12481 17.11438 17.22887 17.35087 17.30603 17.18814 17.2598 17.074 16.98628 17.14229 17.20008 17.20342 17.25759 17.08597 17.10444 16.74682 16.58771 16.7878 16.8247 16.94382 16.86551 16.7313 16.65609 16.64756 16.70224 16.90366 16.89021 16.98369 16.91347 16.33311 16.45891 16.59868 16.41409 16.45173 16.41825 16.38449 16.38934 16.42791 16.46365 16.48984 16.57575
17.82154 17.80273 17.8132 17.80079 17.78 17.80868 17.77469 17.81602 17.83094 17.84614 17.82243 17.7458 17.74207 17.73468 17.79609 17.82871 17.76547 17.75682 17.72969 17.78682 17.71833 17.75159 17.74165 17.83187 17.79224 17.78471 17.81343 17.80022 17.82276 17.80426 17.74185 17.72256 17.66579 17.72975 17.73924 17.67817 17.71854 17.72905 17.75594 17.77326 17.74322 17.76633 17.76438 17.74849 17.68283 17.70055 17.71422 17.75231 17.71356 17.80291 17.79048 17.77621 17.68829 17.82681 17.84159 17.8377 17.89147 17.94161 17.89068 17.77581 17.84187 17.78995 17.73968 17.71111 17.73638 17.74716 17.79432 17.73631 17.77811 17.84879 17.72256 17.74755 17.69731 17.68127 17.77103 17.87627 17.94524 17.80518 17.75167 17.72169 17.69768 17.68646 17.81273 17.75453 17.85814 17.82528 17.80626 17.82259 17.84154 17.8611 18.08297 18.27158 17.97398 17.8763 17.91721 17.99901 17.8627 17.68676 17.83115 17.91885 17.86342 17.78325 17.74225 17.78261 17.83552 17.81017 17.83259 17.78209 17.73841 17.74948 17.90609 17.87745 17.94191 17.90572 17.82067 17.78505 17.86822 17.86763 17.82553 17.89204 17.82623 17.84713 17.83889 17.88846 17.84922 17.8801 17.90373 17.75367 17.81837 17.8015 17.86773 17.88698 17.87228 17.87815 17.86253 17.88438 17.84502 17.88405 17.97696 17.96055 17.92774 17.95026 17.98174 18.0369 18.05112 18.03237 18.02991 17.98712 17.99367 18.02065 18.05236 18.03051 18.03138 18.0533 18.03246 18.10712 18.13748 18.09873 18.07733 18.08354 18.08101 18.11067 18.05673 18.08741 18.13249 18.0284 18.01281 18.19017 18.12157 18.12509 17.76955 17.61246 17.89191 18.10185 18.07533 18.14792 18.12645 17.80556 17.85719 17.68898 16.48124 15.18695 14.29421 13.58045 11.88955 11.84856 11.8077 11.76609 11.7481 11.72554 11.69804 13.19335 14.53086 16.51782 17.12137 17.9518 18.38696 18.51757 18.41562 18.57838 18.50066 18.371 18.43486 18.36329 18.24006 18.17491 17.84253 17.75625 17.86437 17.92649 17.88052 17.81046 17.81171 17.83293 18.08996 18.17631 18.21979 17.94003 17.93298 17.76014 17.69217 17.49122 17.58442 17.82103 17.97326 17.55193 17.32892 17.47194 17.21868 17.4592 17.65516 17.79134 17.94997 17.50095 17.88052 17.87943 17.5121 17.54033 17.61437 17.72366 17.71422 17.67546 17.72808 17.79304 17.89861 17.92929 17.78318 17.73962 17.689 17.72461 17.68633 17.63192 17.72846 17.75806 17.67066 17.62109 17.68889 17.79543 17.90395 17.84217 17.7327 17.75738 17.78775 17.79894 18.01798 17.94403 17.60901 17.44649 17.36757 17.71758 17.59939 17.37116 17.45402 16.77979 16.93083 17.09646 17.31334 17.32469 17.40591 16.92509 16.76931 16.95152 17.06177 17.02824 16.91093 16.7614 17.2152 17.05089 16.76799 17.22102 17.22673 17.18946 17.06685 17.10497 17.31963 17.25034 17.23539 17.18967 17.28877 17.33914 17.29163 17.22435 17.20765 17.13314 17.0696 17.12028 17.10172 17.12011 17.11918 17.03136 17.05841 16.8045 16.55564 16.55763 16.69083 16.88551 16.78761 16.68225 16.77059 16.80135 16.83466 16.88739 16.89901 16.70011 16.85937 16.71357 16.47596 16.41345 16.29342 16.06557 16.19355 16.09754 16.35316 16.37342 16.68934 16.57626
17.84925 17.83796 17.80745 17.83951 17.81719 17.88914 17.75544 17.75315 17.81355 17.79016 17.76991 17.76741 17.80969 17.78251 17.86802 17.78448 17.78559 17.78216 17.80822 17.76328 17.80921 17.82396 17.73204 17.7247 17.75915 17.84612 17.84552 17.80749 17.86016 17.78083 17.85215 17.89046 17.72367 17.74344 17.71381 17.76623 17.72869 17.73946 17.78925 17.66784 17.76261 17.76315 17.70954 17.69488 17.74248 17.75296 17.69356 17.70879 17.67577 17.72219 17.80304 17.80985 17.73175 17.81307 17.86205 17.84985 17.78987 17.80104 17.78284 17.7929 17.84159 17.76193 17.74018 17.74272 17.80204 17.76321 17.72005 17.67078 17.672 17.73468 17.78416 17.82618 17.63664 17.64642 17.73269 17.88873 17.9497 17.73155 17.71121 17.71819 17.69026 17.67327 17.93935 17.9638 17.94159 17.9838 17.94057 18.04171 18.02439 17.84849 18.22371 18.413 17.94259 17.73959 17.78434 17.88444 17.78053 17.73041 17.80416 17.95472 17.91605 17.79995 17.78594 17.79951 17.88227 17.86371 17.77796 17.83094 17.62467 17.46925 17.8272 17.84891 17.84449 17.80369 17.85496 17.87686 17.85668 17.91673 17.82531 17.8507 17.85123 17.84375 17.86223 17.82796 17.80376 17.85378 17.87718 17.8383 17.82671 17.90307 17.92123 17.89768 17.95464 17.9233 17.85272 17.87958 17.8919 17.90756 17.90047 17.93727 17.95243 18.01456 18.11936 18.06401 18.03579 18.03895 18.0769 18.0288 17.9938 18.09752 18.03905 18.0511 18.04748 18.0434 18.05538 18.07388 18.11677 18.09641 18.17464 18.06554 18.06739 18.10743 18.06396 18.05603 18.13792 18.062 17.69725 18.02101 17.96426 18.07247 17.73356 17.52986 17.73207 17.84394 18.11716 18.24618 18.15769 18.18966 18.12131 17.47729 16.30926 15.0364 13.7669 12.38825 11.97069 11.93897 11.90054 11.86322 11.82196 11.51217 11.87174 13.03885 15.42116 17.45338 17.99315 18.05115 18.36059 18.70727 18.88069 18.6975 18.48565 18.38754 18.3672 18.32971 18.35557 18.34594 17.61191 17.87688 17.99766 17.88624 17.81174 17.90726 17.90038 17.79255 17.96577 17.9059 17.89343 17.73238 17.80461 17.86053 17.78939 17.65839 17.70455 17.94827 17.92131 17.789 17.52844 17.53655 17.38238 17.57804 17.70483 17.64533 17.85102 17.98772 17.92211 17.80984 17.48661 17.47518 17.53677 17.60873 17.6635 17.47413 17.67432 17.91168 18.06932 17.97601 17.79616 17.70275 17.7519 17.64345 17.52184 17.57194 17.66524 17.61771 17.6252 17.58985 17.57512 17.82706 17.84995 17.77939 17.73972 17.64869 17.65755 17.73471 17.88748 17.64911 17.58376 17.58929 17.30812 17.52328 17.40838 17.21382 17.3989 16.87554 16.87144 17.03571 17.27813 17.3982 17.52475 17.20648 16.65669 16.45527 16.7431 16.81835 16.83278 16.81289 16.95899 16.82278 16.79753 17.00145 17.23114 17.41745 17.22054 17.2477 17.26014 17.25822 17.25287 17.18642 17.09798 17.2513 17.34758 17.13134 17.10264 17.08959 17.04535 17.14342 17.18036 17.07129 17.0913 17.10063 16.99137 17.03865 16.81981 16.85118 16.79067 16.79801 16.73552 16.82303 16.77298 16.70358 16.71482 16.69295 16.81143 16.49739 16.64298 16.81841 16.71517 16.53405 16.4212 16.21047 16.06169 16.13298 16.28571 16.42158 16.59834 16.50339
17.88678 17.83458 17.88416 17.87313 17.81108 17.83823 17.81175 17.81224 17.85935 17.86109 17.74777 17.82109 17.86439 17.82808 17.8231 17.85781 17.83933 17.82164 17.83325 17.82088 17.77583 17.75984 17.76668 17.78174 17.76674 17.74841 17.74811 17.74121 17.79371 17.81321 17.76199 17.75711 17.74976 17.76844 17.73741 17.74322 17.73474 17.76619 17.7217 17.69618 17.73825 17.80436 17.817 17.80253 17.81156 17.77787 17.77721 17.75392 17.69452 17.72768 17.78261 17.78167 17.74758 17.8076 17.88147 17.76187 17.81319 17.82372 17.72512 17.73759 17.77347 17.76957 17.78254 17.71864 17.74821 17.74756 17.63055 17.61007 17.65231 17.75195 17.72716 17.80441 17.7297 17.74449 18.01047 17.96292 17.9642 17.7857 17.71762 17.82773 17.87919 17.73075 17.72335 17.89835 17.82221 17.99339 18.17184 18.3038 18.14733 18.12777 18.38715 18.43164 18.14591 17.78076 17.8825 17.78373 17.72802 17.77682 17.85116 17.85925 17.89306 17.82472 17.90544 17.90462 17.87588 17.87268 17.802 17.83373 17.689 17.69525 17.90025 17.8503 17.88736 17.83394 17.86748 17.8269 17.85982 17.94184 17.84142 17.8467 17.84718 17.78571 17.81035 17.82458 17.89725 17.86846 17.81364 17.85259 17.92495 17.89873 17.91074 17.88821 17.86665 17.88304 17.91399 17.90934 17.95457 17.89109 17.95317 17.99047 17.98579 17.99869 18.0568 17.99947 18.00674 18.08207 18.10074 18.07947 18.14929 18.10663 18.09147 18.04573 18.06768 18.08265 18.05523 18.04341 18.05556 18.12528 18.06484 17.8756 17.58593 17.68211 17.85904 17.99445 17.98808 18.04982 17.88312 17.95457 17.94466 18.05863 17.7662 17.51962 17.75829 18.07003 18.12655 18.0839 18.17867 18.19025 17.63237 16.9726 15.86063 14.69619 13.50661 12.31153 11.987 11.95201 11.92471 11.88751 11.8273 11.75543 12.59252 14.08987 16.40862 17.97264 18.17991 18.28262 18.40636 18.74357 18.89968 18.71832 18.4591 18.24393 18.22383 18.27192 18.34937 18.38363 18.0406 18.12757 18.11211 18.02231 17.91715 17.77457 17.92893 17.8817 17.81498 17.7469 17.7848 17.80147 17.68677 17.57512 17.55157 17.59058 17.40796 17.64069 17.63785 17.28768 17.42691 17.58873 17.50199 17.4408 17.42993 17.27786 17.52694 17.74958 17.63226 17.4698 17.36502 17.39624 17.48376 17.55261 17.42135 17.21667 17.62206 17.66795 17.94402 17.94744 17.74464 17.70918 17.82322 17.6312 17.51301 17.31487 17.69952 17.71265 17.68959 17.52803 17.51221 17.61643 17.71336 17.72754 17.7503 17.54621 17.51296 17.45041 17.74772 17.65641 16.96965 17.55696 17.5046 17.17401 17.24312 17.11098 17.21213 17.05803 16.95716 16.98237 17.16796 17.28763 17.41424 17.23287 16.96569 16.41723 16.37637 16.79208 16.82062 16.85669 17.09753 17.13263 17.03822 16.889 16.93887 16.82758 17.26627 17.35335 17.20079 17.23107 17.28222 17.21893 17.0863 17.13387 17.28091 17.1685 17.12279 17.08466 17.14138 17.11619 17.22435 17.17744 16.98138 16.96915 16.71274 16.66698 16.63181 16.66663 16.90179 16.76157 16.81462 16.95464 16.55894 16.23969 16.19748 16.31661 16.51188 16.70759 16.77574 16.90594 16.86716 16.59649 16.62394 16.58276 16.48836 16.40744 16.43049 16.4968 16.44842 16.37064
17.80401 17.84789 17.84595 17.89113 17.90586 17.90044 17.8398 17.87808 17.84445 17.82035 17.832 17.86274 17.8902 17.84962 17.86765 17.85142 17.85599 17.77296 17.85254 17.76438 17.75747 17.78461 17.75176 17.79491 17.77931 17.80092 17.7578 17.73143 17.78181 17.81439 17.83236 17.74259 17.74436 17.8329 17.7717 17.72678 17.71908 17.73915 17.79473 17.81062 17.75852 17.74433 17.71158 17.80797 17.77568 17.81849 17.70839 17.86135 17.81635 17.80855 17.72837 17.64864 17.75824 17.81098 17.84794 17.80394 17.7792 17.74944 17.76217 17.79986 17.82193 17.87559 17.82389 17.79992 17.74744 17.69627 17.68864 17.6429 17.72483 17.82121 17.76555 17.70226 17.83471 18.0116 18.2705 18.21961 17.91795 17.8329 17.72575 17.78585 17.79755 17.7864 17.71179 17.84883 17.94905 18.19721 18.36663 18.38233 18.38673 18.39509 18.36745 18.31466 18.03691 17.86441 17.83036 17.79312 17.81992 17.76822 17.86023 17.88043 17.89134 17.80929 17.88182 17.89431 17.94511 17.77638 17.77167 17.82047 17.86805 17.91547 17.88631 17.90558 17.9177 17.88065 17.88582 17.84748 17.8782 17.89466 17.85102 17.939 17.87289 17.84246 17.87154 17.82719 17.854 17.82853 17.87478 17.98969 17.95887 17.87716 17.87883 17.85542 17.9269 17.95583 17.88728 17.89395 17.95061 17.93286 18.00143 17.97066 17.99264 18.035 17.99191 17.99309 18.01695 18.0636 18.10622 18.14475 18.12646 18.08054 18.13665 18.08513 18.07567 18.10809 18.03459 18.03124 18.05033 18.02392 18.1318 17.93733 17.61215 17.70282 17.8978 18.00755 17.98711 18.03914 18.04694 17.63401 18.07101 18.20042 17.77868 17.7952 18.08778 18.12367 18.03608 18.11312 17.97002 18.04287 17.33517 15.75111 14.86764 13.92978 13.16501 12.73675 12.46279 12.09212 11.98814 11.9163 11.83275 12.28717 13.60006 15.08802 17.41395 18.10319 18.41953 18.64058 18.51845 18.7105 18.68958 18.62641 18.4844 18.17069 17.90927 17.99583 18.02134 18.02224 18.01907 18.07158 18.08553 18.02321 17.89503 17.56998 17.68495 17.89982 17.67737 17.65712 17.77202 17.84199 17.53218 17.57465 17.73046 17.54416 17.72463 17.72449 17.61098 17.52181 17.45486 17.63019 17.69816 17.71505 17.65701 17.25102 17.13541 17.42412 17.38439 17.39962 17.45319 17.52699 17.55844 17.51321 17.5529 17.74431 17.69808 17.57054 17.77233 17.79333 17.71789 17.68963 17.6395 17.4136 17.15854 17.17598 17.55886 17.72402 17.74461 17.70237 17.59506 17.47914 17.51007 17.48743 17.53906 17.60693 17.39164 17.46207 17.64625 17.87293 17.84823 17.66181 17.63734 17.42953 17.23621 17.20972 17.22108 17.2096 17.17764 17.26751 17.23539 17.153 17.21161 17.3049 16.96879 16.50012 16.37965 16.52992 16.79497 16.97152 17.12151 16.71185 16.9724 16.94516 16.9761 16.70487 17.12404 17.17447 16.60636 16.52304 17.04883 17.19766 17.06852 17.12794 17.31826 17.23367 17.17359 17.17488 17.13362 17.12724 17.20233 17.17281 16.99617 17.03317 16.95112 16.85206 16.70324 16.73815 17.01861 17.02585 16.86149 16.75609 16.43258 16.2223 16.1308 16.23553 16.36769 16.96805 17.08506 16.95365 16.55385 16.9692 16.8757 16.52762 16.40478 16.55537 16.59108 16.37971 16.32412 16.35165
17.85282 17.83374 17.86558 17.83794 17.85884 17.90819 17.9206 17.88992 17.89256 17.9086 17.85615 17.90022 17.86292 17.83025 17.79263 17.77405 17.80591 17.75858 17.79797 17.78301 17.77095 17.78474 17.7017 17.74243 17.83534 17.82361 17.83014 17.84269 17.82236 17.83942 17.82937 17.67958 17.79093 17.75661 17.8119 17.77629 17.79733 17.76656 17.74289 17.83074 17.74662 17.77994 17.79654 17.74684 17.7107 17.72095 17.74816 17.77209 17.7307 17.72256 17.8344 17.78802 17.74614 17.82541 17.88973 17.84362 17.77227 17.79833 17.86856 17.7789 17.82245 17.76445 17.73869 17.77316 17.7419 17.79011 17.66441 17.66265 17.79566 17.78744 17.76358 17.74798 17.93158 18.15858 18.27294 18.3844 17.9614 17.85262 17.77209 17.71404 17.74262 17.76063 17.77663 17.82821 18.10528 18.26549 18.48395 18.5155 18.40865 18.31729 18.28059 18.32715 18.10122 17.87091 17.73429 17.72104 17.83314 17.82249 18.00052 17.95457 17.9729 17.89964 17.98151 17.93646 17.91364 17.87079 17.90689 17.84974 17.86787 17.95691 17.9112 17.86604 17.89839 17.9027 17.84924 17.89968 17.89083 17.87876 17.84635 17.87666 17.86698 17.82417 17.83095 17.93352 17.88621 17.85891 17.87806 17.99997 17.89803 17.91764 17.94116 17.89474 17.8952 18.00002 17.93092 17.90397 17.93295 17.92558 17.92811 17.95474 17.99615 18.10899 18.02712 18.02388 18.05303 18.06273 18.05025 18.07111 18.0514 18.07651 18.09731 18.1005 18.04979 18.06571 17.97672 18.03404 18.03388 17.96142 18.05133 18.07812 17.757 17.81436 17.97202 18.00602 17.95028 18.02447 18.04957 18.09895 18.18948 18.21226 18.21703 18.17093 18.20816 18.24154 17.96332 18.05205 17.89446 17.67139 16.8329 15.21469 13.93472 13.11799 12.86227 12.94607 12.87829 12.35123 12.21551 12.11183 12.47303 13.79489 15.19032 16.13811 18.05659 18.2843 18.64684 18.96518 18.76764 18.68971 18.50086 18.72665 18.74883 18.43852 17.94203 17.87328 17.96361 17.83968 17.83606 17.94346 17.9976 17.98851 17.9568 17.81215 17.59919 17.65748 17.54847 17.67375 17.88792 17.77336 17.60916 17.43127 17.72833 17.42874 17.63356 17.52245 17.52156 17.51165 17.56822 17.47758 17.58085 17.65186 17.73138 17.4982 17.49279 17.57103 17.49303 17.5095 17.5635 17.54487 17.49849 17.45311 17.41877 17.63531 17.74484 17.64504 17.59043 17.65753 17.76123 17.67912 17.65387 17.50541 17.14876 17.21113 17.46022 17.77904 17.85763 17.61473 17.49423 17.5198 17.5906 17.34212 17.36662 17.64713 17.61907 17.5968 17.39864 17.74982 17.72417 17.58857 17.50474 17.25879 17.23623 17.19047 17.17229 17.15214 17.43049 17.4798 17.47118 17.46737 17.47099 17.31148 17.00733 16.55744 16.38149 16.43113 16.69483 16.89143 16.93156 16.72779 16.84365 16.78164 16.8882 16.95125 17.03259 16.92877 17.07347 17.10318 17.27773 17.25899 17.247 17.19403 17.19986 17.21841 17.21473 17.16194 17.1353 17.1391 17.09848 17.10631 17.07524 17.04608 17.1541 17.06701 16.89853 17.04638 17.11716 17.06057 16.95253 16.90823 16.34826 16.2359 16.20173 16.18726 16.57006 17.20824 17.19587 17.11872 17.02036 16.87176 16.8219 16.45603 16.67209 16.58615 16.48942 16.46422 16.1745 16.11878
17.89179 17.86989 17.8073 17.85861 17.87833 17.86001 17.869 17.87072 17.93108 17.88289 17.88544 17.89105 17.90534 17.83928 17.81576 17.85457 17.82613 17.88244 17.83487 17.85418 17.79222 17.78259 17.73899 17.82427 17.78918 17.78147 17.79733 17.7947 17.85575 17.84055 17.88214 17.85362 17.79764 17.78372 17.80635 17.81566 17.86882 17.82804 17.75359 17.76907 17.79384 17.75511 17.69916 17.70937 17.74775 17.79195 17.85876 17.84932 17.77846 17.73116 17.77775 17.7564 17.71535 17.75483 17.83718 17.79185 17.86791 17.8618 17.83011 17.71409 17.77509 17.72011 17.734 17.71765 17.80296 17.72402 17.69154 17.73386 17.69253 17.83715 17.99412 18.08776 17.92186 17.95711 18.2718 18.41898 18.14744 17.90673 17.79404 17.75105 17.86948 17.98523 17.98445 17.85833 18.07515 18.17996 18.4737 18.56709 18.41453 18.32806 18.04422 18.10262 18.00886 17.80737 17.77854 17.82511 17.82377 17.83346 18.01296 18.02044 17.9361 18.00244 18.01644 17.99291 18.01359 17.76959 17.93461 17.9677 17.91378 17.92686 17.91928 17.93698 17.84508 17.81709 17.91188 17.95329 17.94132 17.93345 17.89989 17.92684 17.87187 17.89197 17.84705 17.95116 17.91039 17.86734 17.87373 17.98685 17.88621 17.91076 17.92996 17.92787 17.89095 17.98149 17.98368 18.0026 17.95772 17.95796 17.994 18.00055 18.04247 18.11541 18.05591 18.02997 18.0451 18.04066 18.0582 18.03383 17.99019 18.06039 18.07663 18.07246 18.0597 18.04469 18.04546 18.00346 18.0126 17.98965 18.02507 18.06783 18.06016 17.84041 17.95946 18.10814 18.16783 18.07594 18.16272 18.08472 18.09803 18.11359 18.14368 18.15031 18.16974 18.2838 18.08729 18.11251 17.6597 17.44288 16.09014 14.82944 13.48622 12.74318 12.61894 12.71007 12.8 12.74468 12.5032 12.71973 13.52776 15.39491 16.99982 17.47792 18.37764 18.52494 18.57231 18.77139 18.6939 18.6469 18.61076 18.52941 18.5629 18.47167 18.28312 18.27045 18.06646 17.82389 17.7403 17.84366 17.94026 17.92423 17.88965 17.74575 17.58665 17.32182 18.07416 17.88558 17.92989 17.93197 17.85652 17.80538 17.88383 17.51722 17.55113 17.43372 17.38444 17.67444 17.63337 17.57386 17.42005 17.61473 17.67563 17.69235 17.61566 17.58804 17.65868 17.61363 17.24726 17.30372 17.33995 17.36185 17.33962 17.52551 17.76255 17.6398 17.57088 17.54615 17.64372 17.71007 17.79931 17.64405 17.11611 16.84033 17.42311 17.74637 17.57902 17.49879 17.51504 17.39398 17.5309 17.64773 17.58186 17.5741 17.57703 17.53803 17.52734 17.6426 17.5825 17.57058 17.55433 17.3389 17.19382 17.18392 17.11759 17.08455 17.07588 17.28435 17.41991 17.46487 17.36722 17.31374 17.14226 16.84383 16.74134 16.62669 16.40533 16.58841 16.66725 16.60956 16.95229 16.92933 16.7688 16.95606 16.89871 16.55316 17.09494 17.08711 17.11782 17.13991 17.21077 17.12757 17.11292 17.23365 17.27628 17.26508 17.18001 17.13214 17.13021 17.05921 17.14475 17.12859 17.13189 17.19318 17.24369 17.19699 17.13805 17.29058 16.98991 16.90822 16.81306 16.88281 16.72608 16.62596 16.66051 17.22589 17.2188 17.29177 17.15524 16.891 16.55339 16.52949 16.64313 16.68517 16.52806 16.50501 16.30764 16.22316
17.86508 17.89238 17.93288 17.9039 17.89294 17.82023 17.91799 17.89856 17.96719 17.88736 17.85833 17.84753 17.84301 17.81601 17.94055 17.97395 17.8723 17.91608 17.83891 17.78029 17.82146 17.81565 17.82329 17.78303 17.85486 17.77639 17.78077 17.78692 17.81687 17.80588 17.83122 17.80897 17.77354 17.79492 17.81194 17.7857 17.76204 17.78877 17.80671 17.84954 17.80711 17.76663 17.70751 17.71848 17.73993 17.70965 17.81553 17.7423 17.85158 17.84422 17.79576 17.75227 17.73983 17.65859 17.76827 17.76906 17.75145 17.8302 17.91761 17.80764 17.80341 17.80851 17.70897 17.70571 17.78664 17.76557 17.72631 17.85271 17.80291 18.05047 18.2254 18.34544 18.12202 17.98178 18.16548 18.41337 17.8898 17.80446 17.83061 17.78085 17.87361 18.18492 18.15119 18.07554 18.15452 18.16741 18.21271 18.23104 18.2848 18.01867 17.86747 17.87436 17.83363 17.9911 18.03443 17.97334 17.84113 17.90783 18.07171 18.00397 17.973 17.90636 18.01072 17.97121 17.87008 17.83745 17.93043 17.94404 17.9325 17.91777 17.85729 17.96328 17.82239 17.87226 17.9087 17.86238 17.91185 17.90356 17.89874 17.916 17.93678 17.94691 17.90829 17.91252 17.87613 17.84899 17.84483 17.99748 17.93023 17.92656 18.02242 17.95763 17.94409 17.95503 18.02844 18.07151 17.967 17.96994 17.9416 18.029 18.12099 18.08043 18.09581 17.99409 18.04728 18.04675 18.02843 18.06392 18.08886 18.04895 18.06482 18.03454 18.01095 18.00703 17.98174 18.00856 18.05276 18.09373 18.03776 18.07448 18.03971 18.03146 17.97958 18.19839 18.13861 18.10386 18.07646 18.07426 17.79033 18.01495 18.14689 18.14198 18.13574 18.22459 18.26296 17.86849 17.46119 16.80958 15.48301 14.25924 12.96741 11.80806 11.91222 12.12923 12.35378 12.78363 13.08407 13.35316 14.5905 16.58631 17.48689 17.73029 18.33329 18.5941 18.64751 18.66732 18.67312 18.61969 18.68922 18.1987 18.25642 18.35455 18.17621 18.29145 18.3132 18.01001 17.68021 17.9454 17.93238 17.87248 17.81846 17.65204 17.49822 17.43268 17.78043 17.60967 17.72869 17.82507 17.89381 17.82913 17.81989 17.61498 17.52986 17.58157 17.52209 17.53237 17.55109 17.56398 17.55714 17.5632 17.65404 17.74152 17.72688 17.66134 17.72317 17.47595 17.05223 17.13127 17.21694 17.30379 17.29213 17.3611 17.68613 17.70052 17.70551 17.74677 17.68425 17.62058 17.60513 17.64723 17.48653 17.53603 17.54583 17.58907 17.61149 17.4807 17.32832 17.47008 17.45905 17.56878 17.62393 17.51709 17.50813 17.52221 17.52744 17.65521 17.65668 17.53 17.54926 17.46923 17.41214 17.23929 17.24913 17.21721 17.1188 17.26144 17.18019 16.96107 16.85553 17.21451 17.28181 17.11259 16.77539 16.89894 16.83168 16.78902 16.68366 16.4668 16.60713 16.75957 16.73518 16.74009 16.72921 16.7494 17.13633 17.10343 16.92616 17.10323 17.16131 17.06942 17.08336 17.27278 17.2532 17.2089 17.16454 16.8457 16.58313 16.58369 17.13853 17.06867 17.03551 17.09137 17.06848 17.01081 17.08162 16.98589 16.89116 16.96545 16.98014 16.99531 16.77818 16.79412 16.62113 17.18779 17.05018 17.18106 17.09007 16.81031 16.67688 16.67674 16.52378 16.50618 16.48093 16.5192 16.53086 16.58129
17.84523 17.90948 17.85282 17.88613 17.91082 17.91149 17.9352 17.93667 17.91045 17.88866 17.93487 17.96353 17.92659 17.8571 17.91279 17.88579 17.86992 17.82755 17.85723 17.79236 17.77952 17.72099 17.823 17.81063 17.81189 17.79872 17.80806 17.75264 17.75434 17.76761 17.80779 17.8546 17.78474 17.79466 17.79334 17.7655 17.77467 17.8288 17.83298 17.853 17.79644 17.73446 17.66343 17.70292 17.7555 17.83976 17.82692 17.7205 17.76895 17.74097 17.72234 17.68378 17.79516 17.76268 17.94839 17.97442 17.79416 17.74097 17.70257 17.70157 17.8349 17.72163 17.68526 17.70691 17.77094 17.74173 17.81721 17.80046 17.77935 18.11824 18.1923 18.14906 18.06163 17.95387 18.16816 18.16042 17.71792 17.83671 17.91063 17.76857 17.74065 17.86627 18.1671 18.23048 18.36944 18.34567 18.24782 18.24059 18.04798 17.99399 17.95003 17.94106 17.97206 18.00904 18.13544 18.10299 17.95398 17.96568 18.04805 17.97096 17.93447 17.95403 17.99425 17.971 17.9138 17.79876 17.85628 17.92353 17.92171 17.99505 18.01047 18.01789 17.8652 17.89143 17.86688 17.8812 17.8884 17.90176 17.87805 17.90312 17.98757 17.94395 17.89394 17.91807 17.96962 17.91615 17.96209 17.94265 17.98911 17.97402 18.03525 17.99742 17.98634 17.95739 17.98311 18.04916 18.03304 18.02775 17.95312 18.03424 18.02534 18.04119 18.0187 18.01905 18.00555 18.00284 18.0637 18.05793 18.05022 17.81783 17.98501 18.04558 17.95999 18.00429 17.99179 18.01931 17.96592 18.02558 18.06351 18.02242 18.05018 18.072 18.03676 18.19086 18.20836 18.13864 17.91946 17.74871 17.80403 17.86221 18.01477 18.04541 18.16644 18.16671 18.16601 18.13814 17.64174 16.69167 14.89567 13.49056 12.14873 11.76973 12.03979 12.29575 12.53732 12.9992 12.93331 14.12759 15.83516 17.2657 17.48522 17.91153 18.13464 18.46834 18.53958 18.10982 18.43019 18.69779 18.80379 18.67801 18.09208 18.15296 18.20295 18.29031 18.40034 18.37942 17.96991 18.07743 17.92692 17.84193 17.75686 17.76139 17.70185 17.6234 17.48841 17.5673 17.65426 17.68203 17.69472 17.72626 17.73705 17.72036 17.90368 18.07339 17.7894 17.60942 17.54142 17.56689 17.44505 17.50149 17.63302 17.7557 17.76796 17.75379 17.59665 17.33878 17.19225 17.28229 17.36077 17.43976 17.2219 17.49328 17.5992 17.79919 17.93601 17.99854 17.83296 17.54397 17.52396 17.603 17.4483 17.47665 17.56645 17.64237 17.6435 17.55957 17.39446 17.31899 17.35012 17.4312 17.5346 17.50063 17.5548 17.54651 17.57384 17.52299 17.5474 17.54164 17.56459 17.49396 17.418 17.3145 17.3121 17.11429 16.886 17.0859 16.83887 16.70096 17.15189 17.2894 16.81688 16.9855 16.80565 16.82402 16.87845 16.92871 16.83067 16.19309 16.19249 16.46959 16.66545 16.68953 16.47469 16.42537 16.86378 16.71153 16.94252 16.85351 17.00396 17.07586 17.04574 17.1541 17.22412 17.27793 17.1823 16.84506 16.65617 16.66104 17.05355 17.13328 17.07531 17.08125 17.03896 16.95871 17.021 16.9821 16.88839 16.93921 16.92339 17.00152 17.01525 16.86589 16.70973 16.80026 16.44567 16.81615 17.1371 16.91313 16.83762 16.91735 16.92278 16.56346 16.59374 16.59109 16.7297 16.61406
17.93404 17.89595 17.88358 17.83004 17.8998 17.88897 17.89836 17.93183 17.95821 17.96148 17.94509 17.84424 17.89079 17.89242 17.9287 17.7275 17.84211 17.87585 17.81076 17.83161 17.81429 17.76171 17.80031 17.79311 17.82647 17.76923 17.8645 17.81544 17.77685 17.87047 17.82896 17.79173 17.80667 17.80535 17.84794 17.79454 17.76612 17.79158 17.77049 17.77434 17.79759 17.78708 17.72153 17.67814 17.70223 17.78669 17.71999 17.70697 17.68982 17.80147 17.81624 17.879 17.90272 17.8672 18.03109 18.15883 17.83194 17.77786 17.68141 17.68245 17.87566 17.90332 17.74204 17.731 17.69927 17.76642 17.80108 17.77971 17.80184 18.03448 18.11203 17.90383 17.86536 17.87715 17.95377 17.88398 17.69606 17.7782 17.70638 17.71076 17.77564 17.77661 17.8891 18.12348 18.1957 18.08807 18.01445 18.01387 17.97075 18.04669 18.09311 17.89118 17.99822 17.97502 18.03878 18.17701 18.06856 18.02623 18.04212 18.02719 17.92235 17.98726 18.02564 17.97121 17.93051 17.86856 17.8426 17.84793 17.84401 17.93896 17.97582 17.96669 17.89216 17.96018 17.90023 17.90033 18.00343 18.00386 17.93772 17.92243 17.95333 17.9473 17.98123 17.92312 17.98638 18.05713 17.97445 17.94363 17.94792 17.94497 17.98172 17.95201 17.99848 18.02299 17.97127 18.01787 18.03419 18.09283 18.05568 18.08624 18.07122 18.03077 17.99369 18.01579 18.02245 18.07213 18.05387 18.00011 17.97874 17.61739 17.80732 17.66976 17.95061 17.97608 17.98196 17.96806 17.85947 18.01822 17.99014 18.05534 18.05586 18.08545 18.14976 18.25161 18.27324 18.21671 17.90987 17.77813 17.83381 17.88065 17.93352 18.10085 18.12693 18.05067 18.01878 17.93441 17.53129 16.46115 14.02636 12.36325 12.13795 11.89823 11.8378 12.45858 12.70638 13.19823 13.80269 14.88389 15.89258 17.27943 17.45818 18.12009 17.9799 18.63065 18.65499 18.54435 18.59586 18.90938 18.88995 18.9223 18.0132 18.23997 18.01187 18.17702 18.27868 18.3364 18.32567 18.22025 18.13035 17.98527 18.04034 17.98747 17.9602 17.93324 17.65468 17.6353 17.7508 17.58452 17.59776 17.78387 17.79571 17.80392 17.74106 17.8998 18.03064 17.77539 17.55334 17.57264 17.48356 17.49723 17.13367 17.70365 17.7532 17.68989 17.46685 17.21251 17.33865 17.44626 17.51447 17.50465 17.54268 17.52809 17.54953 17.85488 17.87218 17.97821 17.89199 17.70042 17.54227 17.31184 17.07158 17.61608 17.59604 17.72453 17.66549 17.65401 17.52876 17.45459 17.28736 17.34862 17.44455 17.51859 17.55082 17.50636 17.50538 17.59186 17.50785 17.38668 17.45225 17.45886 17.46298 17.45494 17.30371 16.87368 16.80235 17.08739 16.98496 16.95845 17.20697 17.32031 17.2291 17.18268 16.62476 16.94335 16.69186 16.84078 16.6056 16.44901 16.07798 16.0963 16.30823 16.58683 16.33429 16.24306 16.75047 16.72503 16.85942 16.98162 16.93996 16.92457 16.98969 17.1781 17.29518 17.3404 17.18116 16.97463 16.84902 16.74795 16.90746 17.04897 17.05139 17.05019 17.07365 16.98457 17.00917 16.94378 16.96766 16.96966 16.93779 17.00531 17.04364 16.94841 16.85136 16.21894 16.19789 16.64531 17.02204 17.29284 17.25753 17.21732 16.95939 16.60521 16.63209 16.45914 16.55828 16.42299
17.92896 17.8488 17.97924 17.87827 17.87731 17.86645 17.99026 17.92468 17.93088 17.90525 17.87732 17.89475 17.89318 17.90986 17.93949 17.90738 17.85107 17.84946 17.8751 17.91064 17.87637 17.80844 17.77898 17.75047 17.83682 17.81667 17.82188 17.84142 17.86744 17.82183 17.81181 17.7771 17.77167 17.78513 17.76592 17.77439 17.74456 17.81109 17.83799 17.7863 17.70629 17.83669 17.83767 17.85254 17.79293 17.71114 17.71042 17.63346 17.6852 17.76507 17.83462 17.87291 17.90803 17.88519 17.81987 17.86439 17.69746 17.84633 17.7764 17.68087 17.74546 17.75974 17.66376 17.74221 17.73829 17.78897 17.81414 18.03815 17.96906 17.79233 17.94765 17.88442 17.90904 17.82213 17.80646 17.8039 17.73815 17.79565 17.8208 17.84847 17.85848 17.78956 17.87357 17.90383 17.86838 17.89702 17.9197 17.9491 17.9642 17.94571 18.0209 17.96291 17.95169 17.9244 17.90843 18.04231 18.15726 17.99909 17.98818 17.9693 18.02768 18.08906 18.03063 17.99279 17.95647 17.92473 17.79767 17.80911 17.85579 17.96585 17.9845 17.94899 17.92712 17.98878 18.0265 18.00799 17.96188 17.99151 17.94603 18.08731 17.91726 17.95927 18.03084 17.92558 18.00402 18.03317 18.00249 17.9731 17.9345 17.98413 17.94318 18.05335 18.01527 18.01346 18.0724 18.06768 18.02282 18.10625 18.05063 18.09098 18.01778 18.03539 18.03646 17.98634 18.01206 18.09104 18.06993 18.04727 17.91886 17.76926 17.73167 17.33184 17.91667 17.96243 18.01566 17.7686 17.68042 17.78794 17.94875 18.00026 18.11025 18.21634 18.22042 18.17321 18.24888 18.19353 17.92537 17.79256 17.84655 17.73736 17.85408 18.16142 18.17841 18.06146 17.93992 17.67627 16.97491 15.65126 12.8897 12.04388 11.93747 12.00688 11.78329 12.34195 12.87063 13.52055 14.88109 16.67066 17.01547 17.45831 17.8289 18.15925 18.10004 18.76694 18.71543 18.68161 18.71241 18.77269 18.78309 18.81492 18.09044 18.04049 18.22477 17.83269 18.0147 18.06966 18.1068 18.25329 18.26659 18.18033 18.14569 18.0293 17.93333 17.85515 17.85546 17.79738 17.79626 17.8147 17.78597 17.7916 17.8549 17.83463 17.6829 17.80533 17.91306 17.82259 17.69331 17.50015 17.52289 17.55419 17.66503 17.63482 17.5574 17.59025 17.34725 17.16291 17.48322 17.61011 17.60485 17.46892 17.48217 17.43372 17.55425 17.69697 17.90804 17.96867 17.82472 17.72326 17.60281 17.09528 17.30973 17.67591 17.74295 17.71852 17.6812 17.72171 17.56585 17.46807 17.38662 17.32466 17.3556 17.35868 17.40389 17.39291 17.47228 17.31658 17.2146 17.06002 17.21465 17.13132 17.15274 17.26779 17.0394 16.66426 16.78831 17.10806 16.99286 17.02658 16.89373 16.79292 17.20565 17.20388 16.84526 16.98193 16.90095 16.77806 16.58855 16.75904 16.83164 16.46962 16.49137 16.31492 16.05026 16.10153 16.63196 16.77262 16.88954 17.00134 16.92779 16.90735 17.02803 17.20041 17.30704 17.15118 17.0753 17.14153 16.93479 17.02308 17.05393 17.00289 17.12247 17.07121 17.06003 17.04627 16.99877 16.96498 16.90273 16.88488 16.88569 16.91881 16.86905 16.8664 16.83339 16.73187 16.25727 16.4272 16.86195 17.18151 17.22447 17.28518 17.21216 16.908 16.85151 16.48143 16.39736 16.45582
17.92616 17.90943 17.8842 17.81293 17.91479 17.9223 17.98499 17.89936 17.89922 17.9264 17.85507 17.88321 17.88326 17.8719 17.94131 17.95824 17.93369 17.9694 17.86392 17.85491 17.85295 17.80888 17.84673 17.7781 17.80408 17.84007 17.80346 17.83242 17.84671 17.80544 17.82002 17.79641 17.85882 17.76741 17.80583 17.78002 17.73765 17.80838 17.78342 17.77426 17.72383 17.81562 17.90635 17.92401 17.82338 17.69908 17.66504 17.71758 17.70404 17.781 17.79947 17.8305 17.76651 17.7338 17.75383 17.70629 17.67965 17.6412 17.77197 18.00529 17.99833 17.85984 17.63004 17.72097 17.78882 17.98235 18.05364 18.14651 18.04087 17.85682 17.91602 17.90757 18.07502 17.89299 17.80941 17.7673 17.89682 18.03774 18.02952 18.0415 17.85426 17.81071 17.83669 17.91712 17.90486 17.87111 17.84504 17.91363 17.88145 17.88358 17.9181 17.98148 17.94294 17.90309 17.88563 18.013 18.13987 17.97956 17.86956 17.88638 17.98248 17.97955 17.93044 17.93015 17.93378 17.92071 17.84307 17.76036 17.7955 17.87353 17.87358 17.87471 17.91259 17.97079 17.96053 17.91892 17.98836 17.95134 17.91318 18.03584 18.00512 17.99404 17.98867 18.09199 18.02934 18.01806 18.01334 18.04547 18.01995 17.97575 18.00346 18.05138 17.99523 18.01804 18.05328 18.1743 18.07881 18.11975 18.02822 18.09615 18.05977 18.1089 18.07717 18.02251 18.0582 18.04949 18.05381 18.04023 17.87225 17.76879 17.91012 17.92547 18.00565 17.99989 18.02614 17.86792 17.70346 17.74779 17.86926 18.1405 18.15696 18.14263 18.14046 18.15508 18.26105 18.18147 18.25928 18.07378 18.00509 18.13516 18.132 18.14834 18.14478 18.00658 17.72877 17.18977 16.08322 14.81466 12.63958 12.32571 12.0504 11.86642 11.86595 11.96892 12.85471 13.31384 15.63876 17.24064 17.85577 18.12859 18.19424 18.23694 18.20437 18.64722 18.71974 18.85513 18.72087 18.60809 18.59863 18.5719 17.9585 18.25178 18.3647 18.23153 18.08488 18.00606 17.78893 18.24879 18.19256 18.09602 18.02435 17.70883 17.68832 17.73828 17.81291 17.74207 17.58662 17.94487 18.02172 17.92706 17.89947 17.84255 17.74594 17.72813 17.77381 17.81746 17.50136 17.34553 17.28418 17.52557 17.53288 17.23794 17.14998 17.47408 17.28444 17.29158 17.61821 17.73869 17.63836 17.46181 17.42334 17.41418 17.51874 17.72109 17.70988 17.77884 17.91179 17.76982 17.57294 17.51395 17.45404 17.58854 17.74341 17.62977 17.65934 17.69329 17.61228 17.48084 17.4629 17.29569 17.19654 17.22475 17.30966 17.4035 17.36706 17.51947 17.01868 17.06783 17.23675 17.17335 17.22343 16.99937 16.75624 16.84328 17.14204 17.41389 17.03302 17.11686 17.19962 17.31836 17.14559 17.21021 17.27188 17.10183 16.80224 16.85574 16.62676 16.89906 16.85862 16.64243 16.53932 16.57992 15.97231 15.95564 16.1218 16.55286 16.86934 17.02665 16.78926 16.70385 16.91259 17.07269 17.20427 17.07327 17.05993 17.12651 17.07386 17.09719 17.04932 17.08777 17.12168 17.01907 16.99776 16.98129 16.9994 17.01403 16.86992 16.83345 16.73454 16.83296 16.81993 16.78879 16.7954 16.60427 16.37671 16.2653 16.37163 16.67292 16.84455 17.09977 17.14538 16.87714 16.58784 16.62846 16.5836 16.67803
17.96527 17.94485 17.82355 17.86569 17.88043 17.95295 17.95068 17.92283 17.91808 17.85382 17.90682 17.86248 17.95084 17.88899 17.97204 17.95749 17.88448 17.95995 17.77719 17.84418 17.84643 17.82747 17.76434 17.84314 17.76817 17.79883 17.87232 17.84296 17.75343 17.73328 17.80163 17.7954 17.77954 17.7887 17.81933 17.72875 17.6793 17.77862 17.76669 17.81208 17.69754 17.7557 17.79694 17.8657 17.75952 17.65806 17.71952 17.66957 17.71427 17.79872 17.78025 17.72583 17.675 17.72159 17.78727 17.66868 17.65652 17.70247 17.81376 17.96032 17.96952 17.8441 17.68489 17.70101 17.74335 17.88633 18.04234 18.111 18.00254 17.95382 17.94503 18.14432 18.21067 17.93371 17.76765 17.78532 17.81896 18.28739 18.21956 18.0507 17.84527 17.82295 17.84875 17.87033 17.93831 17.94616 17.93739 17.8434 17.80052 17.88739 17.96834 17.9661 17.92658 17.89024 17.88324 17.93589 17.90806 17.95195 17.94317 18.02746 18.00081 17.99377 17.94274 17.94503 17.84963 17.93118 17.87604 17.79678 17.89212 17.94215 17.92937 17.93452 17.86693 18.06226 17.97463 17.93088 17.89982 17.90735 17.94809 17.96674 17.97542 18.01904 18.02952 18.02095 18.00545 17.97394 17.96872 17.9502 17.99991 18.02511 18.05013 18.01273 18.05391 18.04813 18.11065 18.1277 18.0882 18.12797 18.2009 18.06824 18.07486 18.06524 18.00398 18.03438 18.01271 18.04226 18.06462 18.06656 18.01387 17.6374 17.85171 17.92792 18.04102 18.04834 18.03374 17.73814 17.64948 17.87446 18.02322 18.10711 18.10153 18.14458 18.18845 18.20407 17.95967 17.99713 18.01152 18.09561 18.18359 18.23101 18.1269 18.07285 18.16874 17.92867 17.37502 16.54753 15.60659 14.32262 13.03417 12.74037 12.42383 12.07998 11.85251 11.77991 12.05376 14.07023 16.25546 17.1819 18.03297 18.21522 18.25707 18.56396 18.63952 18.49289 18.62653 18.82945 18.78659 18.43768 18.21861 17.90674 18.14952 18.22685 18.23565 17.92813 17.67796 17.85301 17.96792 18.06708 18.09608 17.91994 17.88287 18.17488 17.93623 17.92458 17.89853 17.79785 17.71761 17.72768 17.46118 17.70841 17.81221 17.73324 17.62717 17.60857 17.39622 17.66119 17.87866 17.98348 17.45686 17.66219 17.36578 17.17336 17.31794 17.5416 17.62679 17.66343 17.72398 17.69147 17.72376 17.55943 17.50567 17.44283 17.54814 17.70953 17.61275 17.46628 17.88716 17.55649 17.54473 17.555 17.50013 17.68107 17.72093 17.74239 17.74683 17.69706 17.638 17.59769 17.45261 17.42978 17.27561 17.22779 17.1928 17.23292 17.31643 17.31455 17.10791 17.21319 17.33514 17.34402 17.21295 16.82826 16.61031 17.38231 17.51678 17.43785 16.91726 16.98648 16.92455 17.07861 17.36849 17.27814 17.23714 17.33905 16.86184 16.85682 16.6941 16.61533 16.58728 16.75606 16.69925 16.73025 16.43674 16.15605 16.09308 16.62388 16.41922 16.64464 16.80838 16.83705 16.90725 17.08688 16.97291 17.03701 17.07903 17.10629 17.08713 17.11731 17.14451 17.04323 17.02139 16.98396 16.96869 16.98248 17.00094 16.99083 17.03669 16.97823 17.02572 16.89967 16.89561 16.82226 16.78268 16.79279 16.80825 16.6119 16.4266 16.55948 16.86568 17.11015 17.18002 16.20063 16.33465 16.59993 16.64609 16.47585
17.88008 17.92114 17.89236 17.96456 17.89215 17.91206 17.92295 17.87933 17.91824 17.93286 17.898 17.93379 17.90336 17.90791 17.90943 17.9353 17.93648 17.9084 17.89572 17.877 17.82043 17.81367 17.79783 17.82809 17.84393 17.80847 17.81657 17.86648 17.89372 17.82286 17.77518 17.75101 17.77074 17.74695 17.76239 17.71054 17.72495 17.8051 17.8052 17.78178 17.7324 17.71852 17.74234 17.79793 17.69177 17.79096 17.76891 17.65907 17.70691 17.79564 17.77866 17.74381 17.71962 17.80993 17.82623 17.7555 17.66241 17.6876 17.71056 17.78236 17.8641 17.81313 17.74483 17.6854 17.6869 17.85231 17.97297 18.0125 18.11298 17.87117 17.84389 17.91834 18.29855 18.328 18.20938 18.08927 17.99054 18.40656 18.33941 18.07538 17.87235 17.74231 17.85985 17.86242 18.07187 18.07212 18.05791 17.89144 17.82381 17.94299 17.96913 17.9647 17.97211 17.96835 17.94005 17.89029 17.86322 17.94596 18.00009 17.9815 18.00306 18.00484 17.95745 17.8934 17.799 17.97631 17.82321 17.75208 17.81143 17.90526 17.88976 17.8749 17.9356 18.06164 18.02347 17.95794 17.99794 17.96215 18.04441 18.05108 18.03626 18.02108 18.07368 18.03478 18.16846 18.07439 18.0537 18.05147 18.02538 18.03105 18.05533 18.08434 18.03568 18.09306 18.10985 18.16369 18.11838 18.04368 18.08878 18.05809 18.10301 18.02094 18.05893 18.07492 18.09636 18.06333 18.13028 18.08395 18.01577 18.03959 18.11124 18.02456 18.04923 18.16484 18.06999 17.51226 17.73165 17.75025 17.8342 18.08512 18.09389 18.14213 18.18024 18.19691 18.05016 18.01109 17.96737 17.94034 18.11681 18.11418 18.03538 18.05447 17.96779 17.70061 16.95737 16.09106 15.02949 13.75227 12.74328 12.84447 12.82985 12.52827 12.1801 12.25241 13.85842 15.2238 16.92511 17.75083 18.05705 18.28461 18.58794 18.73735 18.6223 18.59902 18.64993 18.56788 18.6932 18.36033 18.1961 17.94152 17.80735 18.06994 18.1078 17.83964 17.70629 17.92644 18.05885 18.07369 17.85871 17.95387 17.9159 18.03613 18.09185 17.9881 17.86741 17.81738 17.73463 17.70425 17.65204 17.57071 17.68674 17.69426 17.33143 17.36476 17.51702 17.72144 17.8044 17.95535 17.87249 17.76518 17.73864 17.66727 17.57244 17.44289 17.38212 17.66939 17.82495 17.70809 17.72968 17.61571 17.55598 17.34497 17.59165 17.75959 17.66137 17.66838 17.63062 17.14131 17.18733 17.43515 17.3923 17.714 17.71822 17.69717 17.6875 17.72969 17.68715 17.59795 17.5119 17.39478 17.33966 17.16682 17.14949 16.98543 16.99701 17.05426 17.04534 17.09136 17.12042 17.07628 16.90615 17.27139 17.36518 17.35902 17.45692 17.45845 17.19365 17.0772 17.06844 17.09465 17.45608 17.34101 17.10228 17.14433 16.99146 16.714 16.79295 16.82807 16.42548 16.69412 16.70554 16.82492 16.87188 16.46502 16.30462 16.38554 16.46522 16.39167 16.34909 16.48741 16.81116 17.09256 16.91945 16.9569 17.05382 17.10189 17.13259 17.11732 17.09642 17.09933 17.07794 17.04218 17.11555 17.0031 16.97347 16.97092 17.02761 17.03363 16.79938 16.86682 16.92387 16.90374 16.84192 16.78504 16.9503 16.8319 16.82516 16.77407 16.61294 16.83313 16.87299 16.56789 16.45599 16.63587 16.63202 16.59031
17.93349 17.93696 17.95017 17.92757 17.8803 17.88981 17.90265 17.96738 17.94516 17.93406 17.92456 17.92288 17.8643 17.86217 17.85019 17.93203 17.86541 17.9059 17.92953 17.78192 17.83993 17.8765 17.86779 17.78915 17.80575 17.82595 17.74739 17.89395 17.87916 17.86395 17.73915 17.80309 17.8325 17.8511 17.75068 17.76586 17.83681 17.80795 17.75795 17.76543 17.73575 17.7095 17.77916 17.79252 17.65733 17.7028 17.72403 17.6318 17.66242 17.71054 17.70173 17.80098 17.98614 17.88209 17.82446 17.74491 17.7249 17.74542 17.69904 17.71468 17.83728 17.84761 17.75419 17.67764 17.76197 17.79969 17.77213 17.8427 17.84613 17.88518 17.91297 18.05963 18.1165 18.22426 18.1542 17.99102 17.85716 17.96522 18.04251 17.84055 17.78955 17.78884 17.85129 17.88252 18.18658 18.19297 18.16944 17.87577 17.96198 18.08311 18.0631 18.03065 18.02265 18.00122 17.9088 17.83117 17.92244 17.9407 17.96288 17.93802 17.98133 17.98427 18.01006 17.85671 17.8569 17.97874 17.77312 17.75115 17.86601 17.91333 17.92447 17.91587 17.94481 17.94329 17.94831 18.01909 18.01113 17.96289 18.01018 18.08102 18.00295 17.99812 18.12374 18.0821 18.14643 18.12441 18.08481 18.02798 18.04352 18.0345 17.99208 18.01325 18.06523 17.97511 18.09802 18.10752 18.13806 18.07772 18.04836 18.07404 18.06326 18.04633 18.03661 18.02386 18.12326 18.05575 18.03805 18.03273 18.04301 18.07917 18.12662 18.05878 18.08378 18.17072 18.09119 17.79432 17.80513 17.64873 17.82306 18.0266 18.10217 18.15927 18.22492 18.26461 18.07135 17.98707 18.07563 18.15209 18.18753 18.1046 18.11759 18.02206 17.72599 17.32261 16.48667 15.55216 14.4289 13.35569 12.59088 12.30423 12.3615 12.61586 12.74419 13.44223 14.76108 16.00091 17.52351 17.78424 18.05876 18.33704 18.45061 18.46041 18.60228 18.54678 18.39758 18.42804 18.37123 18.29764 18.24475 18.11113 17.78156 18.02313 18.14504 18.02045 18.0509 17.95094 18.06777 17.9885 17.79848 18.02821 18.13658 17.87687 17.99081 17.94937 17.76335 17.89303 17.74417 17.64131 17.57917 17.51687 17.53029 17.57155 17.57883 17.60773 17.65521 17.79898 17.69231 17.64306 17.35828 17.83548 17.7948 17.85998 17.81737 17.52574 17.45533 17.39233 17.41035 17.66465 17.6637 17.58144 17.52027 17.29152 17.35208 17.62431 17.6866 17.61625 17.56033 17.1873 17.23558 17.29827 17.27472 17.67384 17.64224 17.68144 17.66492 17.67163 17.65086 17.61607 17.46654 17.33946 17.33 17.25464 17.21786 17.05653 17.04148 17.0446 17.13542 17.01463 16.97443 16.81525 16.58904 16.94195 17.30458 16.75487 17.0532 17.27195 17.04515 17.15859 17.23561 17.19143 16.97432 16.95584 16.91772 17.09064 17.07231 17.01409 16.82387 16.80542 16.69084 16.70945 16.72981 16.83835 16.87245 16.77658 16.63072 16.33 16.52065 16.37183 16.07201 16.28843 16.64314 16.83975 16.91789 16.89129 16.97607 17.09575 17.08449 17.04131 17.11444 17.13198 17.0793 17.12778 17.15779 17.14172 16.92764 16.94916 17.00898 16.85325 16.85314 16.9692 16.83266 16.82386 16.85479 16.82706 16.84395 16.86456 16.95809 16.87582 16.73772 16.63147 16.58424 16.6542 16.74017 16.59679 16.48813 16.50523
17.97919 17.94414 17.8984 17.93542 17.87875 17.91286 17.86535 17.91244 17.86933 17.84842 17.83343 17.90836 17.84063 17.89747 17.90358 17.8576 17.81166 17.80707 17.826 17.80794 17.85024 17.90729 17.8366 17.85108 17.83141 17.86577 17.80215 17.80452 17.78573 17.78378 17.79487 17.76271 17.7905 17.78727 17.71864 17.8631 17.8573 17.77233 17.67712 17.75457 17.78951 17.71662 17.74797 17.7208 17.82627 17.76352 17.72956 17.76658 17.75884 17.81547 17.92672 18.16592 18.30037 18.07887 17.81166 17.83631 17.86832 18.0736 18.04457 17.86946 17.76943 17.75927 17.72156 17.70143 17.75167 17.75692 17.75775 17.90745 17.88449 17.85277 18.01314 17.90329 17.87859 17.95814 17.82001 17.80015 17.77774 17.86395 17.91296 17.7876 17.8032 17.83029 17.9938 18.07579 18.17827 18.25044 18.36621 18.27538 18.2016 18.19342 18.0533 17.99221 17.93955 17.98813 17.88801 17.94549 17.95192 18.01812 18.11074 18.00785 17.95032 18.00049 18.00098 17.91813 17.92437 17.99207 17.79147 17.74457 17.90441 17.87413 17.94238 17.92157 17.9444 17.93267 17.95651 18.0082 17.96479 17.98208 18.06185 18.10988 18.09046 18.05556 18.09579 18.10161 18.05652 18.02944 18.02653 18.00768 18.23581 18.04765 18.03003 18.01628 18.01904 18.08345 18.07924 18.05684 17.99093 18.05901 18.00283 18.0433 18.02149 18.02012 18.04467 18.045 17.99787 18.01876 17.95742 17.93861 17.90666 18.09313 18.08639 18.11783 18.08253 18.09915 18.08145 18.12137 17.96925 17.93762 18.06457 18.16026 18.2241 18.11288 18.16163 18.11693 18.15 18.22885 18.34284 18.16914 18.20944 18.1158 18.08024 17.89359 17.5925 16.90636 16.18421 15.44396 14.16004 12.98972 12.29521 12.00973 11.86772 11.96644 13.10139 14.2234 15.21981 16.36365 17.98124 18.2323 18.2798 18.41566 18.46116 18.45294 18.57508 18.61546 18.39456 18.57603 18.30468 18.22401 18.19833 18.17391 18.07965 17.88433 17.92172 18.1004 18.16349 18.14326 17.91652 17.85702 17.91025 18.15989 17.95102 17.85509 18.01212 18.0452 17.68569 17.86063 17.68696 17.59875 17.59459 17.69432 17.79815 17.698 17.75846 17.78173 17.75555 17.68917 17.72822 17.65917 17.84479 17.84948 17.70779 17.6772 17.83463 17.89823 17.61885 17.45949 17.34648 17.57406 17.58346 17.47879 17.3738 17.2545 17.2993 17.43171 17.57678 17.35677 17.24727 17.4289 17.3591 17.28278 17.12299 16.85768 17.58556 17.44901 17.32034 17.54115 17.6309 17.46913 17.30277 17.34029 17.41819 17.31931 17.34002 17.21845 17.00375 17.06228 17.27477 17.05805 16.85857 16.64916 16.64357 16.99579 17.28092 16.8038 16.9539 16.71589 16.65488 17.1351 17.31683 17.1593 16.84457 16.94338 17.02049 17.0553 16.98974 16.9896 17.00828 16.93062 16.75167 16.93354 16.79075 16.82943 16.7615 16.62956 16.53567 16.39288 16.60143 16.37014 15.87308 16.03718 16.26839 16.43055 16.90435 16.88644 16.97611 17.01984 16.745 16.9035 16.95448 16.96681 16.91773 17.02196 17.16559 17.03626 16.92459 16.90279 17.0129 16.95641 16.85073 16.86677 16.81318 16.77836 16.7706 16.64234 16.69674 16.94365 17.11211 16.96664 16.78828 16.69067 16.62286 16.60565 16.67365 16.76623 16.62526 16.47349
17.96414 17.90658 17.96458 17.9774 17.82782 17.86758 17.95821 17.89706 17.87549 17.80145 17.83943 17.88368 17.87318 17.93058 17.81394 17.89499 17.82554 17.75993 17.80044 17.85909 17.82969 17.79969 17.83571 17.87214 17.86047 17.80772 17.83979 17.85224 17.87782 17.85288 17.83644 17.82448 17.74224 17.76305 17.8161 17.74872 17.7239 17.71984 17.65668 17.69397 17.78447 17.72363 17.74174 17.71856 17.74308 17.74853 17.77495 17.80348 17.74374 17.85326 17.97199 18.18442 18.28082 18.06802 17.80986 17.92135 18.08802 18.1631 18.0028 18.01974 17.87561 17.83678 17.88579 17.68995 17.69276 17.75344 17.86927 18.07541 18.01298 17.94549 18.02047 17.88281 17.80182 17.86522 17.86579 17.74794 17.76584 17.76939 17.83653 17.854 17.93716 18.14023 18.36135 18.53802 18.45228 18.43 18.51345 18.51544 18.37671 18.40544 18.11314 17.9595 17.87132 17.95395 17.95081 17.95121 18.03504 18.00349 18.10315 17.99902 17.96246 18.04262 18.11039 17.98507 17.93951 17.95871 17.95389 17.95345 17.99139 17.95005 17.88837 17.98193 18.01448 18.04643 17.93542 17.98425 18.01028 18.06634 18.09842 18.07062 18.07631 18.04735 17.96721 18.03753 18.00628 18.02009 18.02599 18.08109 18.09399 18.04226 17.99335 18.08247 18.10576 18.06482 18.0245 18.13787 18.03535 18.05637 18.04723 18.02951 17.96604 18.03199 18.05912 17.90743 17.76411 17.96853 17.8874 17.97725 17.90472 17.78683 18.01298 18.00376 18.06752 18.07407 18.0504 18.08111 18.06696 18.03551 18.03971 18.11889 18.16182 18.13892 18.114 18.11199 18.08668 18.28743 18.20224 18.15506 18.17506 17.98346 17.98798 17.94796 17.07582 16.21399 15.42672 14.69795 13.73627 12.69309 12.00234 11.85344 11.84652 11.84885 13.35061 14.52244 15.63042 16.66875 18.26526 18.51131 18.6486 18.59405 18.42754 18.3792 18.39137 18.49473 18.38966 18.43851 18.29879 18.17791 18.12814 18.14451 18.14653 17.8262 17.71746 17.66361 17.903 17.98304 17.81333 17.83875 17.90284 18.13313 17.79288 17.81262 17.99185 17.95075 17.75003 17.81123 17.62444 17.63768 17.74045 17.77717 17.73369 17.63733 17.65321 17.79341 17.72795 17.52553 17.51836 17.63818 17.7593 17.88857 17.62817 17.60854 17.61485 17.5932 17.72279 17.62095 17.43111 17.55823 17.50426 17.42224 17.27956 17.33552 17.28493 17.33909 17.49386 17.28699 17.21423 17.48692 17.28401 17.2676 17.24777 17.19728 17.4447 17.29301 17.32104 17.54389 17.53709 17.35592 17.48487 17.41988 17.37234 17.35225 17.42027 17.37407 17.09565 17.01122 17.17791 17.06614 16.93896 16.81931 16.87878 17.09588 17.21457 17.2332 17.16967 16.8676 16.85034 17.17499 17.12379 17.0833 16.98608 16.90022 17.06563 17.07946 17.11349 17.06429 16.99566 16.90291 16.56523 16.65277 16.68693 16.98247 16.96254 16.85236 16.67086 16.80573 16.89216 16.78088 16.59898 16.12721 16.21971 16.42498 16.46525 16.94909 16.9297 16.75277 17.03649 17.0842 16.96462 16.91803 16.95766 17.05545 17.11598 17.02675 17.01088 16.94038 16.88995 16.85093 16.8369 16.78162 16.79238 16.62104 16.42984 16.59429 16.73976 16.85462 16.98131 16.85612 16.7747 16.73114 16.70745 16.60971 16.59069 16.71812 16.47842 16.34486
