ncols         340
nrows         78
xllcorner     934454.973688
yllcorner     4261999.95475
cellsize      3
NODATA_value  -9999
175 175 175 175 175 175 175 175 175 175 175 175 175 176 179 183 182 175 163 152 146 143 142 145 152 157 159 158 157 157 157 156 156 155 154 153 155 156 153 144 139 142 143 142 146 149 144 133 118 108 107 110 112 117 124 139 150 154 156 158 159 158 159 160 159 157 157 157 157 158 158 159 160 161 162 163 163 164 162 161 159 158 156 153 151 149 148 147 147 147 147 147 148 149 150 150 152 154 155 157 157 157 156 154 154 155 158 162 163 163 164 164 164 166 168 169 169 168 167 167 165 164 161 157 154 153 152 152 153 150 145 142 142 144 144 144 145 147 149 150 152 153 151 150 149 146 141 138 134 130 130 130 129 126 124 123 121 118 115 110 105 102 100 98 95 93 93 92 91 91 91 89 89 88 89 89 89 90 92 92 91 93 95 97 98 99 100 100 102 102 102 102 101 99 97 97 98 99 97 96 96 96 97 97 96 96 97 85 52 20 7 8 10 25 50 71 80 83 84 84 84 81 84 86 86 85 83 78 71 72 76 82 88 91 91 89 87 85 86 87 85 81 79 77 74 69 65 70 78 84 84 84 84 82 80 79 79 80 80 77 72 64 56 55 53 48 44 56 67 68 63 59 56 54 57 69 82 88 90 90 89 87 86 86 84 84 85 82 77 74 71 68 65 63 62 59 51 37 26 21 22 26 37 53 66 73 73 69 65 59 52 50 50 49 51 56 60 61 57 51 48 51 50 47 45 38 18 12 26 38 35 39 47 51 54 56 59 65 80 96
175 175 175 175 175 175 175 175 175 175 175 175 175 175 177 182 183 180 169 158 150 146 146 150 156 159 159 158 158 157 157 156 156 155 155 155 156 156 154 153 151 152 152 150 150 152 151 147 135 122 113 109 110 109 107 118 138 150 154 155 157 159 157 158 158 157 156 156 156 156 156 158 159 160 160 161 161 161 160 158 157 157 155 152 150 148 147 146 146 145 145 145 146 147 148 149 150 152 154 155 155 156 158 158 158 156 154 154 158 163 164 164 164 165 167 169 169 168 168 166 165 163 161 157 153 152 151 152 152 146 141 141 142 142 142 142 143 146 147 149 150 152 152 151 148 145 143 140 136 132 130 130 130 128 126 123 120 118 116 112 107 103 101 99 97 95 94 92 92 92 91 89 88 87 87 88 88 88 89 90 90 92 94 96 97 97 97 99 102 101 101 101 101 100 99 97 97 98 97 96 96 96 97 96 96 96 97 89 58 25 8 8 11 24 44 65 78 82 82 81 80 77 77 79 82 83 84 82 76 66 63 69 78 84 86 89 90 88 88 88 86 83 81 78 76 74 72 77 84 87 86 85 84 83 82 81 80 79 80 82 80 74 63 57 54 51 45 52 64 67 65 66 64 57 54 63 78 88 90 89 89 88 86 86 85 85 86 84 80 78 75 72 69 67 65 64 61 51 37 25 22 23 29 39 51 65 75 74 73 70 64 60 57 55 52 53 57 59 53 40 29 30 31 28 26 22 11 4 8 13 11 13 19 25 34 46 54 56 64 79
175 175 175 175 175 175 175 175 175 175 175 175 175 175 176 179 183 183 176 164 153 149 149 154 158 161 160 158 157 156 156 157 158 157 157 156 156 156 154 154 155 153 151 149 150 152 153 154 150 142 135 130 127 119 106 108 132 146 150 152 154 155 155 155 156 156 155 155 154 153 153 155 157 157 157 157 158 158 157 155 155 154 153 151 149 147 146 144 144 143 143 144 144 145 146 148 150 152 153 153 153 155 158 159 158 158 156 154 154 158 161 162 163 166 167 169 169 168 168 167 166 163 160 156 153 151 150 151 148 143 140 142 142 142 141 141 142 144 145 147 149 151 151 150 148 145 142 140 137 134 131 130 129 128 126 123 119 117 114 110 107 105 102 100 98 96 95 93 92 92 91 89 88 87 87 88 88 88 88 88 89 91 92 93 93 94 95 97 100 100 100 100 100 100 99 98 98 99 98 97 97 97 96 96 96 96 97 94 69 35 10 8 10 21 38 59 73 81 83 82 81 77 76 76 78 80 81 82 82 75 64 61 65 70 75 81 87 89 88 88 88 86 84 80 80 80 80 82 85 87 87 86 85 82 80 79 79 78 79 81 83 80 72 61 55 53 48 47 58 64 64 66 66 57 50 56 72 84 88 88 88 88 88 88 87 87 87 85 82 81 79 76 73 69 67 65 64 59 50 36 25 22 25 31 39 51 66 75 74 71 67 62 59 58 54 51 47 41 33 20 9 9 9 7 7 6 3 0 1 2 1 2 3 5 10 22 38 47 55 65
175 175 175 175 175 175 175 175 175 175 175 175 175 175 175 177 183 184 180 170 159 152 153 157 160 162 161 159 158 157 157 158 158 158 157 156 156 156 155 154 154 152 150 148 149 152 154 156 157 154 150 145 139 127 110 108 130 142 146 148 149 150 153 152 153 154 153 152 151 150 150 151 152 152 152 153 153 153 152 151 151 151 149 148 148 146 145 143 142 141 140 141 141 142 144 147 149 150 151 151 153 155 157 158 156 157 157 156 154 155 157 159 161 164 167 168 167 167 167 166 165 162 159 156 154 152 150 149 145 142 142 143 142 141 140 140 141 142 143 145 148 150 150 149 147 144 142 140 137 135 132 130 128 126 124 122 119 116 113 111 109 107 104 101 100 97 95 93 92 91 90 89 89 89 89 89 89 89 89 89 89 90 90 90 91 93 94 95 97 97 98 98 99 99 99 98 99 99 98 97 97 97 97 96 96 96 97 97 81 47 15 8 9 14 27 47 65 78 83 83 82 80 78 75 75 77 78 81 84 82 74 64 58 59 64 73 81 86 89 91 91 89 86 83 83 83 84 85 86 86 87 87 86 83 80 79 79 80 80 82 84 84 79 69 58 53 51 44 52 59 60 62 63 58 50 51 64 77 83 86 87 88 89 89 88 88 87 85 83 82 81 79 76 71 69 67 65 62 59 49 34 24 24 30 34 40 48 61 69 72 68 58 49 46 41 37 24 14 9 4 1 0 0 0 0 0 0 0 0 0 0 0 0 0 0 4 14 28 46 54
175 175 175 175 175 175 175 175 175 175 175 175 175 175 175 176 181 184 183 176 165 157 157 159 161 162 161 159 159 159 159 159 158 158 157 156 156 156 156 155 153 151 150 149 150 152 155 156 158 157 154 150 143 129 113 107 128 138 141 143 145 147 150 149 150 151 151 150 149 147 146 147 147 147 147 147 146 146 146 146 145 142 139 138 139 142 142 141 140 139 138 138 139 140 142 144 146 147 149 150 152 154 155 155 154 155 155 156 155 155 156 157 158 160 163 165 165 166 166 165 163 161 159 157 155 153 149 147 144 145 145 144 143 142 141 140 140 141 142 144 146 148 149 148 146 143 141 139 138 136 132 128 126 125 124 122 120 118 116 113 111 108 105 102 100 99 96 94 92 90 89 89 90 89 89 89 89 89 89 89 89 89 89 90 92 93 93 94 96 96 97 97 97 97 97 98 99 99 98 98 98 97 97 97 98 97 97 98 91 63 24 8 8 10 16 32 56 76 82 82 82 82 79 75 75 77 77 79 82 84 81 73 62 56 57 63 72 79 87 93 93 90 87 84 83 83 84 85 86 86 85 85 84 82 82 81 79 78 80 83 84 84 82 76 65 55 52 47 46 53 58 61 62 61 54 49 56 69 79 85 88 88 89 89 90 89 86 84 83 83 82 81 79 74 71 69 66 64 64 60 46 31 28 31 34 38 41 49 61 66 60 43 27 20 17 14 6 1 0 0 0 0 0 0 0 0 0 0 0 0 0 0 0 0 0 0 2 11 33 48
175 175 175 175 175 175 175 175 175 175 175 175 175 175 175 175 178 183 185 182 176 167 164 162 162 161 160 160 160 160 160 159 158 157 156 156 156 156 156 157 154 152 151 152 152 153 156 157 158 157 156 152 145 131 115 105 121 133 137 138 141 143 145 145 146 146 146 145 145 143 142 143 142 141 141 140 139 138 137 137 134 122 116 116 117 122 126 128 132 135 136 136 136 137 139 140 142 144 146 148 150 152 153 153 153 153 153 154 155 155 156 156 156 157 158 160 161 163 164 163 162 160 158 157 155 152 147 145 145 146 146 144 143 142 141 141 141 141 142 143 145 146 147 146 144 142 140 138 137 135 131 128 125 125 125 124 123 121 119 116 113 110 108 104 101 99 96 94 93 91 89 90 90 89 90 90 89 88 88 88 88 88 88 90 91 93 93 93 94 95 95 95 95 95 96 98 99 99 99 99 98 97 97 97 99 98 97 98 98 80 40 13 9 8 9 18 41 68 79 81 82 83 81 78 76 76 76 77 79 81 82 79 70 60 54 55 60 69 77 87 92 92 88 85 82 81 82 83 85 85 84 83 82 82 83 82 78 76 77 79 82 82 82 81 75 64 55 52 45 45 52 59 63 65 59 48 47 58 71 82 88 89 89 90 90 89 87 85 85 84 83 83 81 79 76 72 69 67 66 66 60 44 35 33 36 40 43 48 56 55 42 23 6 1 0 0 0 1 1 1 1 0 0 0 1 2 4 10 15 16 15 14 8 2 0 0 0 3 22 43
175 175 175 175 175 175 175 175 175 175 175 175 175 175 175 175 175 182 188 191 188 179 170 165 163 161 161 160 160 160 160 159 158 156 156 157 157 157 155 157 155 153 152 153 153 153 155 157 157 158 157 154 147 135 119 105 111 124 129 131 135 139 140 141 143 143 141 140 140 139 138 138 137 136 135 134 132 131 126 123 116 102 97 98 98 101 104 107 115 124 131 133 134 135 136 137 139 142 144 146 148 150 150 152 152 151 152 153 154 154 155 156 156 155 155 155 156 158 160 161 160 158 156 154 151 148 146 146 145 144 143 142 142 142 142 142 142 142 142 143 144 144 144 143 141 140 139 137 136 135 132 129 126 126 127 127 125 124 121 118 115 113 110 107 102 98 96 95 93 91 90 90 91 91 91 91 90 88 87 88 88 88 88 89 89 91 92 93 93 94 94 94 93 94 95 98 99 99 99 99 98 98 98 97 99 99 98 97 99 89 59 28 13 9 8 10 25 52 72 79 82 83 82 78 76 75 75 75 78 80 80 79 76 68 59 55 54 58 63 72 83 91 91 87 82 81 80 81 82 83 83 81 81 82 83 83 80 75 72 73 77 79 81 83 81 75 65 56 48 40 44 54 61 65 62 49 41 47 61 74 84 88 89 89 89 89 87 87 86 85 84 83 82 82 79 75 72 69 67 68 68 57 45 38 39 43 47 53 54 42 23 8 1 0 1 2 5 7 7 8 9 11 14 16 19 24 30 37 42 42 40 38 29 14 2 0 0 2 16 37
175 175 175 175 175 175 175 175 175 175 175 175 175 175 175 175 175 182 194 200 198 189 176 167 164 163 163 161 160 160 161 160 158 157 156 157 158 157 156 157 156 154 154 153 152 152 154 157 158 159 158 154 148 137 124 110 104 109 114 117 122 130 133 137 140 140 138 137 136 135 132 132 132 131 129 126 123 121 115 106 99 96 100 107 108 105 101 97 97 105 119 130 133 133 133 134 136 139 141 143 146 148 149 151 151 151 150 151 152 154 154 154 155 155 156 156 155 154 154 154 156 154 151 149 147 147 147 146 144 142 141 140 141 142 142 142 143 144 143 143 143 143 143 141 140 139 138 137 136 135 134 131 129 129 130 130 128 125 122 120 118 115 112 108 104 99 97 96 94 92 92 92 92 91 91 91 90 88 87 87 87 88 87 87 88 89 91 92 91 93 93 94 94 94 95 97 99 99 99 99 98 98 98 97 98 99 98 97 97 93 76 49 24 11 8 8 12 29 54 72 81 82 81 78 75 72 71 74 79 80 79 79 79 77 72 67 60 56 52 54 65 81 90 90 86 83 80 79 80 81 80 77 75 76 77 79 79 76 71 69 71 76 81 82 82 80 75 64 53 42 39 45 55 62 62 53 42 42 51 62 74 83 89 89 89 88 87 87 87 87 85 84 83 82 80 77 73 70 67 67 68 67 58 49 46 48 52 51 42 23 7 1 1 2 6 12 17 18 20 23 29 38 45 51 54 58 61 59 56 55 53 49 44 29 10 0 0 0 8 28
175 175 175 175 175 175 175 175 175 175 175 175 175 175 175 175 174 182 196 203 201 192 178 167 164 163 163 162 161 161 161 161 159 158 156 156 157 157 157 158 157 155 155 154 152 151 154 157 158 159 159 156 149 138 126 121 114 104 102 102 104 113 123 131 136 136 135 133 132 128 123 119 121 121 119 115 109 104 98 94 96 107 120 127 126 124 121 111 98 95 108 124 130 130 131 132 133 135 137 140 143 145 147 149 150 150 149 149 150 151 151 152 153 153 155 158 158 156 153 152 151 150 149 149 150 151 150 147 144 142 142 141 140 141 142 143 144 143 143 142 142 142 142 140 139 138 138 137 136 136 135 133 132 132 133 132 130 128 124 124 121 117 112 108 106 102 100 97 95 93 93 92 91 91 91 91 90 89 87 86 86 86 86 87 88 89 90 90 90 92 93 93 94 94 94 96 98 99 98 98 98 98 98 99 99 99 98 97 96 95 88 68 41 18 10 8 8 15 32 55 73 78 78 77 75 72 69 70 76 79 81 81 80 80 80 78 76 70 59 48 49 62 78 88 90 88 83 80 79 79 76 71 67 65 66 70 74 75 72 69 67 70 76 79 80 81 79 75 63 52 42 41 47 56 60 55 47 43 44 51 61 72 85 89 90 88 87 87 87 87 86 85 84 83 82 80 77 70 67 66 67 69 67 59 54 54 54 43 24 8 1 1 2 6 18 30 34 36 38 43 51 63 68 71 71 71 70 65 60 59 58 55 52 40 19 4 0 0 2 16
175 175 175 175 175 175 175 175 175 175 175 175 175 175 175 175 175 180 194 202 200 191 178 170 167 166 165 163 162 162 163 161 159 159 158 157 156 156 157 156 155 155 154 154 152 151 153 157 159 161 161 158 152 141 130 131 127 118 110 105 103 102 104 112 124 131 132 131 129 122 107 97 100 100 99 99 100 102 104 112 119 125 129 130 129 128 125 116 102 93 103 118 126 127 128 128 129 132 134 136 140 142 143 145 147 148 149 149 149 149 150 150 151 151 152 154 155 156 155 155 154 152 152 152 152 152 151 148 145 144 143 142 142 142 143 143 144 143 142 141 141 142 140 139 138 138 138 138 138 137 136 135 134 135 136 135 133 133 130 129 125 121 117 113 109 106 103 99 96 95 94 93 92 91 91 91 91 90 89 87 86 86 86 87 88 89 90 91 90 90 91 92 93 93 93 94 97 98 97 97 98 99 100 100 99 99 99 97 96 96 94 83 62 33 14 9 8 9 16 33 54 65 72 75 75 71 67 67 68 73 78 81 81 80 80 80 80 78 71 54 43 46 61 80 89 91 88 82 79 76 73 68 62 58 56 58 63 67 71 70 66 66 70 75 79 81 81 80 74 63 53 43 40 44 51 53 51 48 45 44 48 58 74 86 90 89 89 89 89 88 87 85 84 84 83 83 80 74 70 68 68 70 68 62 58 58 51 32 11 2 1 1 6 21 39 49 52 57 60 62 65 70 72 70 68 68 67 66 65 64 63 60 55 46 30 15 3 0 0 3
175 175 175 175 175 175 175 175 175 175 175 175 175 175 175 175 175 178 193 201 199 189 176 170 169 169 168 166 164 163 164 163 161 161 159 157 156 156 156 155 154 155 154 153 152 151 153 156 159 161 162 160 154 144 133 136 135 131 123 118 118 114 104 99 102 111 120 125 124 118 102 93 101 109 117 121 122 124 126 129 129 130 130 130 129 128 124 118 105 95 97 108 117 121 124 125 125 127 130 133 136 138 139 142 144 145 146 146 146 146 146 147 148 149 150 151 152 154 155 155 154 154 153 152 151 150 150 148 146 145 145 144 144 145 145 145 145 143 142 142 141 141 139 139 139 138 138 138 138 138 138 137 136 137 138 136 134 135 134 131 127 125 122 117 113 110 105 102 99 97 96 94 93 92 91 91 91 90 89 88 87 86 88 88 89 89 89 90 90 90 90 90 91 93 93 93 95 97 97 98 99 99 100 100 99 100 100 100 99 98 97 92 79 53 22 9 8 8 9 16 31 49 62 73 78 77 73 67 61 61 67 75 80 81 79 79 78 77 74 61 47 41 49 68 82 90 90 85 80 77 74 68 62 57 53 52 54 58 65 70 66 63 66 72 77 80 81 81 80 76 69 57 47 41 42 45 47 49 49 46 43 48 62 81 88 89 90 90 90 88 86 86 86 85 84 83 81 77 73 70 69 70 70 66 61 53 39 21 5 1 0 4 19 39 53 56 59 64 65 65 66 68 69 67 65 63 63 65 66 65 63 60 53 44 35 23 8 0 0 1
175 175 175 175 175 175 175 175 175 175 175 175 175 175 175 175 175 178 191 200 198 188 178 173 171 172 172 169 166 165 165 163 162 161 160 158 156 155 156 154 154 154 155 154 153 152 153 155 158 160 162 161 155 146 136 140 140 138 132 129 131 128 112 107 106 104 103 105 107 107 100 103 120 131 136 136 136 136 137 135 133 131 131 131 130 128 125 122 115 105 99 99 102 105 112 121 123 123 125 128 130 133 135 138 140 142 142 143 143 144 144 145 147 148 148 149 151 152 153 153 154 154 153 152 150 149 149 149 148 147 147 146 147 147 147 147 146 145 144 145 144 143 141 140 139 139 139 138 138 138 139 139 138 139 140 138 136 136 137 134 132 130 126 121 117 113 109 105 103 100 98 96 95 94 93 92 92 91 90 89 88 87 87 87 89 89 89 89 89 90 90 90 90 92 93 94 95 96 98 98 98 99 99 99 101 101 102 101 101 100 98 97 91 72 39 14 7 8 8 9 14 28 46 66 80 85 79 68 59 56 56 63 72 77 79 79 79 78 76 69 55 41 40 54 69 83 90 90 86 82 78 72 67 63 56 52 50 50 55 62 63 60 64 70 74 77 80 82 83 84 81 74 65 54 44 38 41 43 46 48 45 41 50 72 85 89 90 91 90 88 87 86 86 86 84 83 81 79 75 72 71 71 72 70 61 45 27 10 2 1 1 11 32 51 57 58 62 64 64 63 63 64 65 67 66 62 60 62 66 65 62 56 47 41 35 28 14 1 0 2
175 175 175 175 175 175 175 175 175 175 175 175 175 175 175 175 175 177 190 198 197 188 180 176 174 173 172 171 169 167 165 162 162 161 161 160 158 156 156 156 155 154 155 154 154 153 153 154 157 160 162 162 157 148 139 145 144 142 138 137 138 135 122 124 123 116 106 102 104 107 110 120 136 143 144 143 142 141 140 137 136 134 134 133 132 129 127 126 123 117 110 105 101 98 100 114 122 123 122 123 125 127 130 133 136 137 138 139 140 140 141 142 144 146 147 148 149 150 151 151 153 155 154 153 151 150 150 150 150 149 149 148 148 149 149 149 148 147 147 148 148 147 146 143 142 142 141 140 140 140 140 140 140 140 141 141 138 137 138 137 136 134 130 125 120 116 112 109 106 103 101 99 97 96 95 94 93 92 91 89 88 87 86 87 88 89 89 88 89 89 90 90 89 90 91 93 93 95 98 97 97 98 98 98 101 102 102 102 100 99 98 98 95 86 61 31 13 8 8 8 9 13 26 50 71 82 81 72 62 57 53 54 61 69 75 78 80 80 76 73 62 46 39 43 56 73 86 92 91 87 83 79 75 72 66 60 54 49 47 52 57 58 62 68 72 74 78 82 85 85 84 82 77 68 56 44 42 39 41 44 44 40 43 64 83 89 91 91 90 89 88 87 86 85 84 83 82 80 77 74 73 74 74 70 58 38 20 5 1 0 4 20 43 56 58 62 66 66 64 63 63 63 62 66 66 62 58 60 65 66 63 56 48 42 36 29 16 2 0 2
175 175 175 175 175 175 175 175 175 175 175 175 175 175 175 175 175 178 190 198 196 188 182 178 176 174 173 172 172 170 167 164 164 162 161 161 160 158 158 158 157 155 155 155 155 155 154 154 157 160 162 162 159 152 144 150 148 147 144 143 141 136 130 135 136 133 126 122 122 125 130 138 145 147 146 146 147 146 144 140 140 139 137 136 133 131 130 128 128 126 121 117 112 105 96 102 115 119 119 120 121 123 124 127 129 131 132 134 135 135 137 138 140 142 144 146 147 148 149 150 153 155 155 153 152 151 151 151 151 151 150 149 149 150 151 151 150 150 150 150 150 150 150 147 146 145 144 143 142 141 141 141 141 141 142 142 141 139 139 139 138 137 135 130 125 120 115 111 108 105 103 100 98 97 97 95 94 93 92 91 90 88 88 88 88 88 89 88 88 88 87 88 89 90 90 91 92 94 96 96 95 96 98 98 101 103 102 102 101 99 98 98 97 94 83 59 37 18 8 9 8 8 11 27 47 66 75 73 65 61 58 55 55 60 68 74 78 79 77 74 69 57 45 40 45 61 78 89 92 91 88 85 82 80 76 71 64 56 47 45 52 57 61 67 70 71 73 80 84 85 85 84 82 77 67 55 50 43 41 40 40 38 39 57 78 87 90 91 91 90 89 88 87 85 84 83 82 81 79 76 75 76 74 66 51 31 14 3 1 0 8 30 52 60 61 67 71 70 68 65 63 61 58 62 62 60 57 58 64 68 66 61 56 49 40 30 17 4 0 1
175 175 175 175 175 175 175 175 175 175 175 175 175 175 175 175 174 180 191 198 195 187 182 180 178 176 175 175 174 173 170 168 167 165 163 162 162 161 160 160 159 157 156 157 156 156 156 157 159 161 163 164 161 156 151 154 152 151 149 147 144 137 136 140 143 144 145 145 144 145 147 149 151 150 149 149 150 151 148 145 145 143 141 138 135 133 131 130 129 129 128 126 124 118 104 94 102 106 108 112 114 113 115 116 120 123 125 126 127 129 132 134 136 138 140 142 144 145 147 149 152 154 154 154 153 152 152 151 152 152 151 150 150 151 152 153 153 154 154 153 153 150 151 150 149 147 147 146 145 144 143 143 142 142 142 142 142 142 142 141 140 140 138 134 129 123 119 114 110 107 105 103 100 99 99 97 95 94 93 93 93 91 90 91 91 90 89 89 88 87 86 87 89 90 89 90 90 92 93 94 94 95 97 98 99 102 102 103 102 101 99 99 99 99 97 88 73 44 14 8 8 8 7 8 20 39 57 63 61 61 61 60 57 56 61 68 72 77 78 78 76 70 58 46 41 47 62 79 88 91 91 89 87 86 84 80 75 67 54 45 51 59 62 65 67 66 68 74 79 83 85 85 84 81 74 65 58 51 47 44 41 37 38 49 68 81 88 91 92 92 90 89 87 86 85 85 84 82 80 79 77 77 70 56 40 23 9 2 1 1 15 39 58 63 66 72 73 73 70 67 63 58 52 54 55 54 53 57 65 69 68 67 64 57 45 33 21 8 0 0
175 175 175 175 175 175 175 175 175 175 175 175 175 175 175 175 174 182 193 198 195 188 183 181 181 179 178 178 178 175 173 170 169 168 166 164 164 163 162 161 160 159 158 158 158 157 158 159 160 161 164 165 163 158 155 155 153 152 151 150 147 144 143 144 146 148 149 149 148 148 150 151 152 152 151 151 152 152 149 147 146 144 142 139 137 135 134 132 132 133 133 131 129 126 118 106 99 93 93 97 99 97 101 103 107 111 114 117 119 122 126 129 131 133 136 139 141 142 145 148 150 152 152 153 152 152 151 151 151 151 150 150 151 152 153 154 156 157 157 155 155 154 154 154 152 150 150 149 148 146 145 145 144 142 142 142 143 144 143 141 141 141 139 136 131 127 123 118 113 110 107 105 102 101 101 100 97 96 95 94 93 92 91 93 93 91 90 88 86 86 87 88 88 88 88 89 89 91 92 92 94 95 96 97 99 100 102 104 103 102 101 100 100 100 100 99 93 69 35 14 10 9 9 7 8 15 30 42 46 50 53 56 58 58 59 63 66 71 76 79 80 78 71 61 48 40 46 63 78 88 91 90 89 88 87 82 77 73 61 47 52 61 66 65 63 62 63 68 72 76 79 82 83 81 78 73 68 58 51 49 47 41 38 43 57 74 86 91 93 92 91 90 88 86 87 87 86 83 80 79 77 76 66 49 34 20 5 1 1 4 25 47 60 64 69 73 74 73 71 69 65 57 47 45 48 49 51 58 66 68 68 68 68 64 52 39 26 13 0 0
175 175 175 175 175 175 175 175 175 175 175 175 175 175 175 175 176 185 195 198 195 189 185 184 184 182 181 179 178 176 175 173 171 168 167 166 166 165 163 162 162 160 160 159 159 159 158 158 159 161 164 166 164 160 158 156 152 152 152 152 151 150 150 149 149 151 152 152 151 151 152 152 153 154 153 152 152 150 147 146 145 143 141 140 139 139 138 137 137 138 138 137 135 133 131 127 122 112 103 100 100 99 97 95 94 95 98 104 111 117 120 123 124 128 132 136 138 141 143 145 148 150 150 150 151 150 150 150 149 150 150 152 153 154 155 156 158 160 160 159 159 158 158 156 155 153 153 152 151 149 148 147 146 144 142 142 142 143 143 140 140 139 138 136 133 130 125 121 116 113 110 107 105 104 103 103 101 100 99 97 94 94 95 94 93 91 90 87 85 84 86 87 87 87 88 88 88 89 89 90 93 95 95 96 97 99 101 103 103 103 102 102 100 100 102 103 102 93 74 52 28 13 9 8 8 8 9 13 20 26 28 32 39 44 48 54 54 58 70 78 81 81 79 74 63 47 39 44 59 77 86 88 87 87 86 82 79 77 70 56 51 62 69 69 65 62 63 64 67 68 72 77 80 80 79 77 74 66 56 51 50 49 43 39 46 63 80 89 92 93 91 89 87 87 87 87 87 86 83 81 79 76 64 51 37 19 4 1 1 7 30 52 63 67 72 75 75 73 72 72 69 61 47 41 45 47 51 58 64 64 62 63 67 70 65 53 36 18 3 0
175 175 175 175 175 175 175 175 175 175 175 175 175 175 176 177 182 189 196 198 196 191 188 188 187 185 184 181 179 177 176 175 173 171 169 168 167 165 164 164 164 162 159 159 160 160 159 158 159 161 164 166 165 162 160 158 153 152 153 153 153 152 153 153 153 153 153 153 153 153 153 152 153 154 152 151 150 149 148 146 145 143 142 141 141 142 142 141 140 140 141 141 141 140 138 137 135 130 124 121 120 118 115 109 102 94 90 93 101 112 117 118 119 123 127 132 135 137 140 142 145 147 148 149 149 149 148 148 148 149 150 152 154 156 157 158 160 162 163 163 164 162 161 160 158 157 156 154 153 151 150 150 149 147 144 142 141 140 140 140 139 137 137 136 133 131 127 123 119 115 112 110 108 108 108 107 104 102 101 99 97 97 96 94 92 91 90 87 85 84 85 86 87 87 87 88 88 87 87 88 91 93 93 94 95 98 100 101 102 102 102 104 106 106 105 104 104 103 97 80 57 27 13 9 8 8 8 8 8 9 9 12 15 19 23 28 31 33 49 66 75 78 79 77 72 60 47 38 41 57 74 84 87 87 86 82 77 73 67 53 48 59 68 69 68 65 64 63 63 64 68 74 78 79 78 79 77 72 62 51 48 51 47 41 39 52 70 81 86 88 87 83 82 84 86 87 86 85 82 79 79 69 58 46 30 10 1 1 2 13 36 55 67 72 75 76 75 75 74 74 72 67 53 40 42 45 50 56 60 56 53 56 61 67 70 67 55 43 20 2
175 175 175 175 175 175 175 175 175 175 175 175 175 177 179 183 189 194 198 198 196 193 191 191 190 187 186 184 181 179 178 176 174 173 172 169 167 166 165 164 163 161 159 159 160 160 160 160 159 162 164 166 166 164 162 159 156 154 154 154 154 155 155 155 155 154 154 154 154 154 155 154 154 153 152 150 149 149 149 148 147 145 144 144 144 144 145 145 144 145 145 145 145 145 143 143 141 139 137 135 132 131 128 121 114 107 99 93 92 101 112 114 115 117 121 125 130 132 135 138 141 143 145 146 147 148 147 147 147 148 150 151 153 155 158 160 162 165 166 167 168 166 164 163 163 161 159 157 155 154 153 153 152 149 146 146 146 142 139 137 136 135 134 134 133 130 128 126 122 119 115 112 111 111 111 110 107 105 104 101 99 98 96 95 94 94 92 88 85 83 83 85 85 86 86 87 87 87 87 88 89 90 91 92 94 96 97 98 99 101 102 103 105 105 104 104 103 104 104 97 83 57 37 23 14 9 8 8 8 7 7 7 7 8 9 11 12 12 21 36 50 64 76 76 73 69 59 44 34 37 53 74 86 88 87 80 70 62 54 47 56 67 72 72 69 67 66 64 63 64 67 72 76 78 78 78 78 74 65 53 46 47 48 46 39 45 59 70 75 76 76 76 78 81 80 82 84 83 81 78 73 60 50 34 15 2 1 1 5 24 48 64 72 75 76 77 75 74 75 75 74 71 64 48 40 41 46 52 56 55 52 53 56 59 61 62 61 57 44 29
175 175 175 175 175 175 175 175 175 175 175 176 178 181 184 188 193 196 199 199 197 195 193 192 192 189 188 187 185 182 180 179 177 175 174 171 169 167 165 164 163 163 162 162 161 161 161 160 160 162 165 167 167 166 163 160 157 156 155 155 156 157 157 157 157 155 155 156 157 157 157 156 156 155 154 152 151 150 149 149 148 147 147 148 147 147 148 148 148 148 149 149 149 149 148 147 146 145 144 143 141 138 134 128 121 115 108 99 91 92 100 105 106 108 111 116 121 127 131 135 138 140 141 143 144 145 145 145 145 147 149 151 153 155 158 160 163 166 169 170 170 169 168 167 166 164 162 160 158 156 154 154 152 150 148 148 149 146 142 139 136 133 132 131 131 129 128 127 124 121 118 115 114 114 114 113 111 110 108 106 104 102 98 96 95 95 92 88 86 84 83 83 85 85 85 86 86 86 86 87 87 88 90 91 92 92 94 95 96 98 99 100 101 102 103 103 102 103 104 104 99 87 72 55 37 23 17 16 17 17 13 10 8 7 6 7 7 7 9 14 23 38 53 62 69 74 69 56 44 37 40 53 75 87 88 79 64 50 46 52 66 73 74 73 71 69 67 65 64 64 66 69 73 76 77 78 78 74 68 59 48 43 46 47 39 40 51 62 68 69 70 73 75 74 73 75 78 80 78 74 65 53 35 16 4 1 1 1 12 38 60 71 75 77 76 77 76 75 75 76 75 74 71 61 47 40 40 44 47 48 49 50 50 50 50 50 53 55 55 49
175 175 175 175 175 175 175 175 176 176 177 180 184 188 191 194 197 199 201 200 199 197 195 194 194 192 191 190 188 184 182 181 180 177 174 173 170 168 167 165 165 165 165 164 163 162 161 161 160 162 165 168 168 167 165 162 160 159 158 158 158 159 158 158 158 157 158 158 159 159 159 158 158 157 155 154 153 152 151 150 150 150 150 152 152 151 151 151 151 151 152 152 152 152 152 151 151 150 150 151 151 147 141 134 128 122 117 110 104 98 97 95 93 92 94 100 105 114 122 128 133 136 137 139 140 141 141 141 142 145 148 151 152 154 158 161 164 167 170 171 171 171 171 170 169 167 165 162 159 156 154 153 152 150 148 148 148 147 145 141 138 135 132 129 129 128 127 125 124 121 119 117 117 116 116 116 116 115 114 112 110 107 102 99 97 95 92 88 87 86 84 83 84 85 86 85 84 84 83 84 85 86 88 89 89 89 90 91 92 93 94 96 97 99 100 100 99 100 103 105 105 104 98 86 69 54 47 45 45 47 42 34 25 16 8 6 6 7 7 7 8 14 22 34 47 62 68 65 61 54 45 40 54 75 81 72 55 46 53 63 74 76 75 74 73 71 69 67 65 65 66 68 72 75 77 78 76 73 70 66 54 43 42 45 38 37 47 59 66 68 68 70 70 69 68 68 71 74 71 64 55 43 20 3 0 1 1 1 21 51 69 76 78 77 76 77 77 76 77 77 75 73 73 70 60 52 46 44 43 42 42 42 42 42 41 41 44 49 55 56
175 175 175 175 175 175 176 176 178 180 183 186 191 195 198 201 203 204 203 203 201 199 198 197 196 195 194 193 190 185 184 182 180 178 176 174 172 169 168 167 166 166 166 165 164 162 161 161 161 161 165 169 170 168 166 164 163 162 161 161 161 161 160 160 160 160 160 161 161 161 160 160 160 159 157 156 155 154 153 153 153 153 153 154 156 155 155 156 155 154 155 155 155 155 155 155 155 154 154 156 158 156 149 142 137 131 128 125 123 117 110 101 96 92 91 92 92 98 107 115 123 128 132 134 134 135 136 136 139 142 145 149 151 153 157 160 163 166 169 171 171 172 172 171 171 169 166 163 159 156 154 152 152 150 148 146 145 145 144 142 139 136 133 130 130 128 126 124 123 121 120 119 118 117 117 118 118 118 117 116 115 112 106 103 100 97 94 90 88 88 86 85 84 84 85 84 82 82 81 81 82 84 85 86 86 86 86 87 88 88 88 90 92 94 95 94 95 96 99 102 103 106 105 100 92 83 77 75 75 77 73 65 54 40 22 13 9 8 8 7 7 6 6 12 20 37 49 60 67 68 62 46 39 55 64 58 50 54 67 73 77 78 77 76 75 74 71 69 67 67 67 69 72 74 76 76 74 71 70 69 61 49 40 43 38 36 45 58 68 70 68 68 67 67 65 65 66 67 64 54 44 28 9 0 1 1 1 4 32 60 74 78 79 78 77 77 78 77 77 76 74 72 71 73 71 66 60 54 49 46 43 40 40 40 41 43 46 51 55 58
175 175 175 175 175 176 178 180 184 187 191 196 200 204 208 210 210 208 207 206 206 204 202 200 199 197 196 195 193 189 187 184 181 180 179 176 173 172 170 168 167 167 166 165 164 164 162 162 162 162 166 170 171 170 168 167 165 164 164 164 165 165 165 164 163 162 162 163 163 163 161 162 162 161 160 159 158 158 157 157 157 156 156 157 159 160 161 162 161 159 159 159 159 158 158 159 158 157 157 159 162 161 156 151 146 142 140 139 138 133 128 123 118 114 109 103 97 89 94 98 106 114 121 125 127 127 128 130 133 137 142 146 148 151 154 157 160 163 166 169 171 172 172 171 170 168 166 162 159 156 154 153 151 150 148 145 142 141 141 139 136 135 133 132 131 128 126 125 124 123 123 122 121 120 118 117 118 119 119 118 117 115 110 108 105 102 99 95 92 90 88 87 84 82 82 82 81 79 78 78 79 80 81 81 81 81 80 81 81 82 82 83 85 86 86 86 88 89 91 94 98 103 105 105 102 97 91 88 88 88 86 84 81 73 57 42 31 24 16 11 8 8 7 6 7 12 21 39 54 66 71 59 36 38 48 50 56 69 78 78 79 80 80 79 77 76 74 72 70 69 69 70 72 72 72 72 71 69 69 69 66 56 43 43 38 35 45 60 70 72 71 69 68 67 66 65 64 63 59 48 30 12 3 1 1 1 3 16 47 69 78 79 79 78 78 78 77 76 76 75 73 71 70 73 74 71 68 64 61 60 56 50 50 51 52 54 57 60 61 61
175 175 175 176 177 180 184 187 192 196 201 206 210 213 215 215 214 212 211 210 210 207 205 203 202 200 198 196 194 192 189 187 184 182 180 178 175 174 172 170 169 168 167 165 165 166 164 164 164 164 167 171 173 172 170 168 167 167 168 168 168 168 167 166 165 165 165 165 164 163 163 164 164 162 162 163 163 162 160 160 160 160 161 162 164 166 166 167 166 165 164 163 161 161 162 163 162 160 160 162 162 160 156 154 152 148 146 145 143 139 135 130 126 122 119 117 113 102 95 90 92 98 107 114 118 120 122 124 128 132 137 142 145 147 151 154 157 159 163 167 169 170 170 170 168 167 165 162 158 155 153 153 151 149 146 144 143 141 140 137 135 133 133 132 131 129 127 127 127 127 126 126 125 125 124 121 119 118 119 120 119 118 115 114 110 106 103 101 98 95 92 88 86 83 81 80 79 77 75 75 75 76 76 76 76 76 76 75 75 75 76 76 77 77 78 78 79 81 83 86 92 97 102 106 105 101 94 90 89 87 85 86 88 89 86 81 70 56 42 25 14 10 8 8 7 6 9 17 28 45 59 57 35 39 51 59 68 77 80 81 80 81 80 79 78 76 75 74 72 70 69 69 70 70 69 69 69 69 69 69 66 59 48 46 40 35 45 61 73 74 73 71 71 71 70 68 66 61 54 41 17 4 1 1 1 3 12 37 65 77 79 78 78 78 78 76 75 75 75 74 72 71 70 73 72 71 70 68 66 65 64 63 64 65 64 63 64 64 63 63
175 175 176 179 182 187 192 197 203 208 212 215 217 218 218 217 217 215 214 214 213 211 209 207 205 202 200 198 196 194 192 190 186 184 182 179 176 174 173 172 170 169 168 167 167 168 167 167 166 166 168 172 174 173 171 168 167 170 171 170 169 169 168 167 167 167 168 168 168 167 167 166 166 166 166 167 167 166 165 165 165 165 166 167 168 170 169 169 170 169 168 166 164 165 168 168 166 163 163 164 163 159 158 157 155 153 152 151 148 146 143 138 133 129 125 121 119 116 111 103 95 91 93 99 105 111 116 118 122 126 130 136 140 143 147 150 153 156 160 164 166 167 168 169 168 166 164 162 158 155 153 152 151 149 146 144 143 141 140 137 135 133 132 132 131 130 129 129 129 129 128 129 130 130 130 130 126 121 119 120 122 123 120 119 115 111 108 105 103 99 95 91 88 85 83 80 77 75 71 70 71 72 72 72 73 73 73 73 72 72 72 71 71 71 71 70 70 71 73 77 83 90 98 103 104 103 100 95 90 87 86 85 85 85 86 87 86 83 74 56 39 24 14 9 8 8 8 8 11 19 29 36 32 52 63 67 73 79 83 83 82 81 80 79 78 77 76 75 73 71 68 67 68 69 71 70 69 69 71 70 66 59 52 49 43 37 45 61 73 74 72 72 72 73 74 73 68 58 42 22 7 2 1 2 3 14 36 64 78 80 79 77 78 78 78 76 74 74 74 73 70 70 70 72 72 71 71 70 68 66 66 67 69 69 69 67 65 65 64 64
176 177 181 185 190 196 202 207 214 217 219 220 220 220 219 219 218 217 216 216 215 214 212 211 209 206 203 201 198 196 194 192 190 186 183 181 178 176 174 173 171 170 169 169 168 168 169 169 169 169 170 174 176 175 172 171 168 170 172 173 173 172 169 168 168 169 169 170 171 171 170 170 168 170 170 170 170 170 169 169 169 170 172 172 173 173 173 173 174 173 172 171 170 170 169 170 169 167 165 165 164 162 161 159 158 157 156 156 155 151 147 143 139 136 132 128 123 120 117 113 106 100 94 91 92 97 108 113 116 120 124 129 134 136 141 144 147 151 154 158 161 164 165 166 165 163 161 159 157 154 153 152 150 148 145 144 143 142 140 137 135 133 132 132 131 130 130 130 129 129 129 131 132 133 133 133 132 128 122 121 122 125 126 124 120 115 112 109 106 102 100 96 93 89 85 82 78 75 70 66 67 70 71 71 69 67 68 69 71 72 72 72 72 72 70 68 68 69 69 70 74 82 89 96 102 104 102 97 93 89 86 85 84 83 83 86 86 86 85 80 68 51 35 20 13 8 7 7 8 9 12 16 20 41 59 66 70 74 78 82 83 84 84 82 80 80 79 77 75 73 70 68 68 70 72 72 71 69 70 69 66 60 53 49 44 38 46 60 71 73 71 71 72 72 73 73 70 58 32 9 2 1 1 3 11 28 50 72 80 80 79 78 77 77 78 77 76 75 73 71 70 70 69 71 72 71 71 70 68 65 65 67 68 68 68 67 66 66 65 64
179 183 188 194 201 207 212 213 220 221 222 222 222 221 220 220 219 218 218 217 217 217 216 215 213 210 207 204 201 198 195 194 192 189 186 183 180 179 177 175 173 172 171 170 170 170 172 171 171 172 173 174 177 177 174 173 172 171 173 174 174 174 173 171 171 171 171 172 173 174 174 174 173 174 175 175 174 175 175 175 174 175 176 177 177 178 178 177 176 176 175 174 174 174 172 172 171 169 168 169 168 166 164 162 160 159 159 158 158 156 151 148 144 141 139 135 129 124 121 118 114 110 104 98 90 87 97 107 112 114 117 122 126 129 133 137 140 144 148 152 155 159 160 161 160 159 157 156 154 153 152 151 149 147 145 144 143 141 139 137 136 134 133 132 131 131 131 130 130 131 132 133 135 135 134 136 135 132 128 124 123 125 126 125 123 119 116 113 109 106 104 101 97 92 89 84 79 75 72 66 65 68 69 64 57 55 56 55 57 60 63 63 62 59 55 53 53 56 61 65 68 74 80 89 97 102 104 102 98 93 89 86 85 83 81 83 84 85 87 88 83 73 60 45 33 21 12 7 6 8 8 8 11 20 35 49 59 63 64 71 79 83 85 84 83 82 80 78 77 75 72 69 69 71 73 74 74 71 69 67 64 59 52 46 41 40 51 63 69 70 70 71 73 72 72 72 62 38 14 3 1 1 1 7 19 36 57 74 80 80 80 79 78 77 76 75 76 75 72 71 71 70 68 69 70 71 70 70 67 64 64 67 68 67 67 67 67 69 67 64
187 192 198 206 213 218 220 217 221 223 223 223 222 222 221 220 220 220 219 219 219 218 218 218 217 216 213 210 206 201 198 196 194 192 189 186 183 182 180 177 175 174 172 171 171 172 174 173 174 175 175 175 178 179 177 175 174 173 173 174 175 175 175 175 175 174 174 174 175 176 177 178 177 178 179 179 179 180 180 180 180 180 181 181 181 181 181 179 179 178 178 177 176 176 176 176 174 172 172 172 171 169 167 166 164 163 161 160 160 159 156 152 150 147 145 142 136 131 127 124 120 117 114 108 99 90 88 95 104 109 112 114 116 119 123 126 130 135 140 145 149 152 154 155 154 153 153 152 151 150 150 149 148 146 145 144 142 140 138 137 136 134 133 133 132 131 132 132 133 134 135 135 137 137 136 137 137 136 134 129 126 126 128 130 129 124 118 113 111 110 108 105 100 95 91 86 81 75 74 69 63 61 59 53 50 55 57 55 53 52 51 50 49 47 47 46 44 43 45 54 61 66 72 81 91 99 103 104 102 99 93 89 87 84 80 79 81 83 86 87 87 85 80 71 62 50 35 19 9 6 8 8 8 9 14 23 34 41 44 49 61 71 79 83 84 83 81 80 78 76 74 71 70 71 72 74 75 72 68 64 61 56 48 42 38 45 57 65 67 67 67 68 71 72 69 57 36 11 3 1 1 3 8 18 29 43 62 76 80 81 80 79 78 76 75 74 74 74 72 71 71 70 68 68 68 68 69 69 68 65 64 66 67 67 67 67 68 69 67 62
196 203 210 217 221 223 224 222 220 223 224 223 222 222 221 221 220 220 220 219 219 219 219 219 219 219 218 215 211 205 201 198 196 193 191 188 186 185 182 179 176 175 173 172 172 174 175 175 177 178 176 177 179 181 179 177 176 174 174 176 177 177 178 178 178 178 177 177 178 179 180 181 180 181 181 181 181 181 182 183 183 184 183 183 183 183 183 182 182 181 180 179 178 177 178 178 177 176 174 174 172 171 170 169 169 167 165 163 162 161 159 157 155 153 151 147 142 137 133 130 126 124 121 117 110 101 92 88 92 98 103 106 108 110 113 116 121 127 133 138 142 146 147 148 148 148 148 148 147 147 147 147 146 145 143 142 140 139 137 137 136 135 133 133 132 132 133 134 135 135 136 137 139 138 137 138 139 138 136 132 129 127 129 133 132 127 121 114 114 113 110 107 102 96 92 87 80 76 73 67 57 51 52 52 57 65 68 67 64 60 56 56 56 57 59 57 54 50 47 48 50 53 58 69 83 94 99 102 103 102 98 94 89 85 81 78 77 79 82 85 87 87 87 86 82 76 64 46 26 10 6 8 8 7 7 9 14 19 22 25 35 49 65 77 84 84 83 82 80 78 76 73 71 71 71 73 73 72 67 61 57 52 44 38 39 49 61 66 66 65 64 63 65 68 62 35 9 0 1 1 3 12 22 31 39 50 65 77 80 81 80 79 78 76 75 73 73 74 72 71 71 70 68 67 66 67 68 69 69 68 67 66 66 65 66 66 67 68 65 61
208 216 220 223 224 224 225 225 219 222 223 223 223 222 222 222 220 220 220 220 220 220 220 220 220 220 220 219 216 210 205 201 198 195 192 191 189 188 186 182 179 177 175 175 175 176 176 177 178 180 178 178 180 182 181 179 177 175 176 178 179 179 180 180 182 182 181 181 182 182 182 183 182 182 182 182 182 183 184 185 186 186 186 185 185 186 187 186 186 185 183 182 181 179 179 180 180 179 178 176 174 173 172 173 173 171 169 167 165 163 161 160 160 159 157 152 146 143 139 136 133 131 128 124 120 114 106 95 88 88 92 95 97 101 104 108 113 118 124 130 135 139 140 141 142 142 142 142 142 142 143 144 143 142 142 140 138 137 136 136 136 135 134 133 132 133 134 135 136 136 137 139 140 139 139 140 141 139 136 133 132 128 129 132 132 129 124 119 118 116 111 107 102 96 90 85 79 73 65 57 49 49 57 64 69 75 76 76 75 72 71 72 74 75 75 73 71 69 64 57 50 45 45 54 70 86 94 98 101 103 102 99 93 88 84 80 75 74 76 80 84 86 87 89 89 88 84 74 55 29 11 6 7 7 7 7 7 7 8 9 14 22 39 59 76 84 85 84 81 80 79 77 74 71 71 71 70 69 64 57 52 48 41 37 43 55 65 68 67 65 63 61 61 62 50 18 0 1 1 2 9 25 36 41 47 57 69 77 79 80 80 79 78 77 75 74 74 74 73 72 70 69 68 67 66 66 67 68 70 70 69 67 65 63 64 65 66 66 63 60
218 222 224 224 224 225 225 224 221 220 222 224 223 223 222 222 221 221 221 221 220 220 220 220 220 220 220 220 218 215 210 206 203 199 195 193 192 190 188 186 183 181 180 179 178 178 178 179 179 181 180 179 181 183 183 181 180 178 178 181 182 181 182 182 184 184 184 184 184 184 183 183 183 183 183 184 185 187 187 187 188 188 189 190 191 191 192 192 191 191 189 187 185 182 181 181 182 182 181 179 176 175 175 175 175 174 172 170 167 164 162 163 163 162 159 154 148 146 145 142 141 139 135 131 127 123 119 111 102 93 88 87 87 91 96 101 106 110 116 122 127 131 133 134 135 135 136 137 137 137 139 139 139 139 139 137 136 134 133 134 135 135 134 132 132 133 134 135 136 137 138 140 141 140 139 141 142 140 137 135 133 130 129 130 131 130 128 125 123 119 113 107 101 96 90 83 76 65 53 49 51 59 69 74 74 74 75 74 74 73 74 74 75 75 74 74 75 74 73 72 66 57 47 44 58 78 90 93 98 101 102 102 98 92 86 83 77 74 72 74 79 84 86 87 87 87 87 85 78 58 31 11 9 8 8 8 7 7 7 7 6 7 14 32 57 76 86 86 83 81 80 80 78 75 73 70 68 66 61 55 49 44 38 39 49 61 70 71 70 69 67 63 59 54 34 10 0 1 2 6 20 35 43 47 53 64 74 78 79 80 80 79 78 76 76 74 75 74 73 72 70 68 68 67 67 66 67 68 69 69 68 68 67 65 63 63 65 65 63 58
222 223 224 225 225 225 225 225 224 220 222 224 225 224 224 224 224 224 223 222 221 220 221 221 220 221 221 220 219 218 216 213 209 203 199 196 193 191 190 188 186 185 184 183 181 180 180 180 181 183 182 181 182 184 185 183 182 182 182 183 184 184 185 185 186 186 186 185 184 184 184 184 186 187 187 187 187 188 188 188 190 192 193 195 196 197 198 197 197 197 196 195 191 187 184 182 182 184 184 182 179 177 177 177 176 175 173 170 168 166 164 163 163 162 159 155 152 151 151 150 149 146 142 138 135 130 126 123 118 111 104 96 89 85 87 91 95 99 105 111 116 121 124 126 127 127 129 130 130 131 134 134 134 135 135 134 134 132 131 133 135 134 133 132 133 134 135 136 137 138 140 141 141 140 141 142 141 140 139 137 133 131 128 128 130 132 131 127 124 120 114 105 99 95 90 81 71 54 48 55 67 74 76 75 74 73 73 72 72 72 71 71 71 70 69 70 71 71 71 71 70 67 57 46 53 71 85 89 94 98 100 102 100 96 89 85 82 79 74 70 72 79 84 85 84 82 82 84 84 75 59 44 28 15 11 11 11 10 8 8 7 7 6 11 31 58 80 87 85 83 82 82 81 79 76 72 69 65 58 51 44 38 36 44 57 67 71 72 72 70 67 60 47 31 13 3 1 2 6 18 35 48 52 55 60 70 77 80 80 79 78 78 77 76 76 75 74 74 73 71 69 67 67 67 67 67 67 67 67 67 68 70 69 66 63 61 63 64 65 58
223 224 225 225 225 225 225 225 225 222 222 225 227 227 226 226 225 224 223 222 221 222 222 222 221 221 221 221 221 219 218 217 215 210 204 200 196 193 191 190 189 188 187 185 183 183 183 183 182 185 185 183 183 185 186 185 185 185 185 185 185 186 187 187 187 186 185 185 185 185 185 188 188 190 190 189 187 188 190 192 195 197 198 198 199 201 201 200 201 201 200 198 196 192 189 186 184 184 185 185 183 181 180 179 177 176 174 172 170 168 166 165 164 163 162 159 157 155 155 157 155 151 147 143 140 136 132 129 126 122 117 110 102 94 91 88 86 87 91 99 105 110 114 117 119 120 121 122 123 126 129 127 128 129 129 129 130 129 129 131 132 132 131 132 133 134 135 137 138 140 141 141 142 141 142 143 142 141 139 136 133 131 129 128 129 130 130 128 124 118 110 103 98 93 87 77 64 50 59 70 77 78 77 75 74 74 74 74 74 73 73 73 72 71 70 69 69 69 68 68 66 61 50 44 54 70 79 83 89 91 95 97 98 96 92 87 84 84 81 75 70 71 77 82 81 78 77 80 84 85 80 74 63 45 31 29 31 27 17 10 8 7 6 7 16 37 64 83 86 84 83 83 81 80 78 75 72 66 56 45 37 37 43 52 63 71 74 73 66 55 43 32 19 8 3 1 2 6 17 35 49 56 59 64 72 79 81 81 81 79 77 76 77 77 75 74 73 74 73 71 69 67 66 67 66 66 66 67 66 66 67 69 70 67 63 61 62 62 63 60
224 225 225 225 225 225 225 225 225 225 223 225 230 230 229 228 227 225 225 225 224 223 223 223 223 222 222 222 222 221 220 218 217 214 210 205 200 195 193 191 191 190 189 188 186 186 186 187 186 188 187 185 185 187 188 187 186 186 186 186 187 187 188 187 187 187 187 187 186 185 185 186 187 188 189 188 190 193 196 197 199 200 199 200 202 203 203 203 204 204 203 201 201 198 193 190 188 186 185 185 186 186 184 182 181 179 177 175 173 171 169 168 167 165 164 163 161 159 158 158 158 156 152 148 145 143 139 135 131 128 124 119 113 105 101 98 94 90 87 86 90 99 105 108 110 112 112 114 116 118 118 120 122 124 125 126 126 126 126 127 127 128 129 131 133 134 135 137 139 140 142 142 141 141 141 142 142 141 139 136 133 133 133 131 129 129 130 128 125 118 107 101 97 92 82 68 54 58 71 78 79 77 76 76 76 76 76 76 76 76 76 75 74 73 72 70 68 67 66 64 59 49 42 49 62 71 74 76 80 83 87 90 91 91 91 89 87 86 85 82 75 68 67 72 76 75 72 74 80 85 85 80 77 69 62 63 66 62 47 29 16 9 7 6 8 17 34 61 80 86 86 85 84 82 81 79 76 69 53 40 38 47 57 65 70 74 74 65 50 33 13 5 4 2 1 2 7 19 33 47 56 59 63 72 80 83 83 82 81 79 77 76 77 77 75 73 72 73 74 73 70 67 66 67 66 66 66 66 66 67 67 68 69 67 65 63 61 60 61 62
225 225 225 225 225 225 224 225 226 228 225 226 230 232 231 230 229 228 228 227 225 224 223 223 223 223 223 223 222 222 221 219 217 215 212 209 204 199 196 194 193 192 191 190 189 188 188 189 190 189 187 185 186 188 190 189 187 187 187 187 188 188 189 188 188 188 187 187 186 186 187 189 190 193 194 194 195 197 199 199 200 200 200 202 204 205 204 206 207 206 205 205 205 204 198 194 191 189 187 186 186 187 187 185 183 181 179 176 175 174 172 171 170 168 166 165 164 162 161 161 160 158 155 152 150 149 145 140 137 133 129 125 120 114 109 106 103 100 96 90 85 86 95 101 105 106 106 106 108 110 111 114 117 119 121 122 123 123 122 122 122 123 125 129 132 133 133 135 137 140 141 141 141 141 141 140 139 140 140 139 137 137 136 133 130 128 127 125 122 114 105 99 94 87 75 59 55 71 79 80 79 77 77 79 80 80 80 79 79 80 79 78 77 75 73 71 69 67 65 62 52 41 45 59 69 71 71 71 73 76 78 82 83 84 86 87 88 88 86 84 80 70 61 61 68 70 68 70 76 82 84 79 75 77 79 80 80 77 70 56 36 20 10 6 6 8 14 32 61 83 88 88 87 86 84 82 79 69 50 40 47 60 69 74 75 75 66 52 40 30 8 0 1 1 1 6 17 30 39 49 56 60 68 78 84 84 83 82 81 80 78 78 78 78 76 74 72 72 74 73 70 68 66 66 65 65 65 66 66 66 67 67 67 68 66 64 62 60 59 62
224 224 225 225 225 225 224 226 228 231 228 226 229 234 235 233 231 231 230 228 228 227 225 224 224 224 224 223 223 222 221 220 218 215 213 210 206 202 199 197 195 193 192 191 191 190 190 190 191 189 187 187 188 189 191 190 189 188 189 189 189 190 190 190 189 188 188 188 190 192 193 193 193 197 198 199 200 200 201 200 200 201 202 204 207 207 206 209 209 209 208 208 209 209 204 198 195 192 190 188 187 187 188 187 185 183 182 179 177 176 175 172 172 170 168 167 166 165 164 164 163 161 158 156 154 153 150 146 142 139 135 131 127 122 117 111 108 105 103 98 91 84 84 89 97 101 102 101 102 103 104 107 111 113 114 116 117 118 116 116 116 118 121 125 128 130 131 133 136 138 140 140 140 140 139 139 138 138 138 137 136 132 132 131 127 123 120 116 111 103 95 91 87 79 65 55 64 79 83 82 80 80 82 84 86 85 84 83 83 83 82 81 80 77 75 72 70 68 66 60 47 42 54 67 71 69 68 67 68 69 70 73 74 75 77 81 85 85 84 84 83 75 63 55 58 62 64 68 73 77 82 79 72 75 80 83 82 81 80 74 57 37 19 9 6 6 6 13 37 73 87 89 88 87 85 84 81 66 46 43 57 70 75 77 77 74 59 43 37 35 16 0 1 2 0 10 28 43 47 52 58 65 75 84 86 84 83 83 83 82 80 79 79 78 77 75 73 72 72 71 70 68 66 65 65 64 64 65 65 65 66 66 66 66 66 64 61 59 56 61
223 225 225 225 225 224 225 227 230 232 231 228 229 234 236 234 232 232 230 229 230 230 226 224 224 225 224 224 223 222 221 220 219 216 214 211 207 204 201 198 195 194 192 192 191 191 191 191 191 190 189 189 190 191 192 191 191 191 192 192 192 192 192 191 191 190 189 190 193 197 197 195 195 198 199 200 201 202 202 201 201 202 203 205 208 210 208 210 211 211 211 211 211 211 208 202 199 196 193 190 189 188 187 188 188 186 184 182 180 178 177 175 173 172 171 169 168 167 167 167 166 164 161 159 157 155 153 149 146 143 139 136 132 128 123 117 113 109 106 103 98 91 84 82 85 90 94 96 100 101 101 103 104 106 107 109 109 111 110 109 110 113 117 121 123 125 128 130 133 135 136 138 138 137 137 136 137 136 135 133 132 128 127 124 120 114 109 104 99 92 85 81 77 67 57 58 73 83 86 84 83 85 88 90 91 89 88 87 86 86 85 84 83 79 77 74 71 68 66 57 44 46 59 68 69 67 66 64 65 64 65 66 66 67 70 73 75 75 76 81 84 80 69 55 52 56 61 67 69 73 79 79 71 70 75 79 81 80 81 80 71 56 36 19 8 6 6 7 17 50 77 86 85 85 84 84 81 61 42 44 62 73 77 77 78 74 58 42 37 38 23 0 1 2 0 11 35 55 57 57 62 70 78 85 86 85 84 84 83 82 81 80 79 78 78 75 74 73 71 69 68 67 65 64 65 65 64 64 64 63 64 65 64 65 65 62 58 56 54 61
224 225 225 225 225 225 227 228 231 232 232 230 228 229 230 230 230 230 231 231 232 231 228 224 224 224 225 224 223 222 221 220 219 217 214 211 208 205 202 199 196 195 193 192 191 191 192 192 192 192 192 191 192 194 194 193 194 194 194 194 194 194 193 193 194 194 194 194 196 198 197 198 197 198 199 200 202 203 203 204 203 203 204 206 209 212 210 210 211 212 212 212 211 211 209 205 202 199 195 192 191 189 188 188 188 188 187 185 182 180 179 178 176 175 174 172 172 171 170 169 168 166 164 162 159 156 154 152 149 147 144 140 136 133 128 124 120 115 112 108 104 102 97 89 84 82 83 87 94 101 101 101 100 101 102 102 101 103 103 103 105 108 111 115 117 120 123 126 128 130 132 134 135 134 134 133 133 132 131 130 130 128 124 118 113 107 101 96 91 85 79 74 66 57 56 68 80 87 90 90 90 92 94 95 95 93 91 90 90 88 87 86 86 82 80 76 73 70 65 56 44 47 58 66 68 66 63 62 63 61 60 61 61 62 64 63 61 59 63 73 82 83 75 61 52 51 58 63 65 69 77 78 70 67 71 76 79 79 79 80 79 73 57 36 16 6 6 6 6 24 59 80 83 82 81 81 79 57 38 40 59 73 77 77 76 73 57 39 35 40 27 0 1 2 0 11 38 63 66 64 68 74 79 83 85 85 84 83 82 82 81 80 80 79 78 76 74 73 71 69 68 66 65 64 66 67 65 63 63 62 63 64 64 63 63 60 55 53 53 61
224 225 226 225 225 226 229 230 232 233 234 232 226 221 220 221 223 226 230 234 234 232 229 225 224 224 225 225 224 223 221 219 218 216 215 213 210 206 203 201 199 197 195 192 191 192 193 193 193 194 194 193 194 195 195 194 195 195 195 195 196 196 197 198 199 199 200 200 200 199 199 200 200 201 202 202 203 205 206 206 205 205 205 207 209 211 210 211 212 213 212 212 212 211 208 206 204 201 198 194 191 190 189 188 188 189 189 187 185 184 182 181 179 177 177 176 175 174 172 171 170 169 167 164 161 158 157 154 152 151 148 144 140 137 134 130 126 123 119 116 112 110 109 105 100 93 85 82 85 96 98 99 99 99 98 98 97 97 98 99 101 103 105 108 110 113 118 121 123 125 128 130 132 131 132 131 129 129 129 128 128 127 122 117 113 108 102 97 92 86 81 74 63 56 63 78 86 91 96 97 98 99 99 99 98 96 95 93 92 90 88 88 87 84 81 79 76 72 67 60 47 43 51 62 68 67 64 61 60 59 59 59 59 60 59 56 50 48 51 61 75 83 80 69 59 51 52 56 60 67 75 75 70 68 71 76 77 76 77 78 79 79 71 52 28 11 6 6 6 12 43 73 83 82 81 80 79 60 38 35 52 70 77 74 72 68 50 32 31 40 32 2 1 2 0 9 34 61 69 71 73 76 80 82 84 84 83 83 82 82 81 80 80 80 79 77 75 73 71 69 68 67 66 65 65 66 65 63 62 62 64 64 63 61 61 59 55 52 53 59
225 226 225 225 226 227 229 232 234 235 235 229 221 216 216 217 218 221 229 234 235 233 231 226 225 224 226 226 224 223 222 220 218 217 217 216 213 208 204 203 203 201 197 194 193 193 195 195 195 195 195 195 195 195 195 195 196 196 197 198 199 200 201 202 203 204 205 205 203 202 203 203 202 203 204 205 206 207 209 210 208 207 208 209 210 211 211 212 213 213 214 214 212 210 208 206 205 204 201 197 192 190 190 190 189 189 190 190 189 187 185 183 181 180 179 179 177 176 175 174 173 171 169 167 164 161 161 158 156 154 152 149 148 145 140 136 132 129 127 125 123 120 117 114 111 106 100 93 86 86 91 93 94 94 95 95 94 94 94 96 98 99 100 101 102 105 109 113 116 119 122 123 126 128 131 131 129 128 128 126 124 121 119 116 113 110 107 103 100 94 88 80 70 66 73 83 90 97 101 103 103 103 102 102 100 98 97 95 92 91 89 88 87 86 84 81 78 74 71 66 56 42 41 51 64 69 66 63 61 60 59 58 59 60 57 52 46 43 39 44 59 76 82 78 70 56 47 48 56 67 74 74 70 69 72 74 75 77 79 78 76 78 75 63 42 21 7 6 6 7 33 69 86 85 85 83 81 67 45 34 45 64 70 69 69 62 43 26 24 36 36 7 1 1 0 7 22 42 65 76 78 79 82 83 84 84 84 85 83 82 81 81 80 79 78 77 76 74 72 70 69 69 68 65 64 64 63 61 60 61 64 64 63 62 62 61 58 56 56 57
225 227 228 228 227 228 231 233 235 236 232 224 218 217 218 218 218 219 225 232 236 235 232 227 227 225 225 226 225 224 223 222 220 219 218 217 213 208 204 205 204 201 199 198 197 198 198 197 197 196 196 196 196 196 196 197 198 199 201 202 203 202 203 206 207 206 205 205 205 205 205 205 205 205 206 207 208 210 211 212 213 211 211 211 213 214 213 213 213 214 214 213 212 211 210 209 207 205 203 201 196 193 192 192 191 191 190 190 190 190 188 185 183 182 181 180 180 179 179 178 177 175 173 171 168 166 165 162 160 157 155 154 152 149 145 141 138 135 133 131 130 127 125 122 118 115 111 107 100 90 87 85 84 85 87 88 88 90 91 94 96 97 97 97 97 98 101 104 108 114 117 118 119 124 126 126 125 125 126 123 121 118 115 112 108 106 104 103 102 100 95 88 82 81 82 86 93 100 105 107 106 105 105 105 101 98 96 95 93 91 89 89 89 88 87 85 82 77 73 69 65 58 45 41 55 69 67 65 64 63 61 57 58 60 57 52 45 37 30 31 43 63 77 79 76 61 45 42 52 64 71 73 70 68 71 72 72 73 76 76 77 79 77 68 51 30 9 6 6 7 35 68 83 84 84 84 83 75 57 40 41 57 64 66 66 57 45 30 22 30 36 15 2 1 2 2 3 18 52 74 79 80 82 84 85 85 84 85 84 83 82 81 81 79 77 78 77 75 72 70 69 69 67 65 64 64 62 60 59 60 62 63 64 65 64 63 63 62 60 56
225 228 232 232 230 230 233 235 236 234 227 221 219 221 224 224 220 219 222 230 237 237 233 229 229 226 225 225 225 224 223 222 220 219 218 215 211 207 206 207 204 200 199 200 201 202 200 199 200 199 198 198 198 198 198 198 200 202 204 205 204 204 206 207 208 207 206 206 207 207 207 207 207 208 209 209 209 211 212 214 216 215 213 213 215 216 216 215 215 215 214 213 212 212 212 211 209 207 205 204 201 198 195 194 192 191 191 191 191 191 190 187 185 184 184 183 182 182 182 181 180 179 177 174 172 170 168 166 163 161 159 157 155 153 150 146 143 140 138 137 136 133 131 127 124 122 119 116 112 106 100 93 87 84 84 83 82 82 84 88 93 97 98 96 95 94 94 96 100 105 109 112 114 117 121 121 119 119 119 118 114 110 105 100 95 93 93 93 95 96 93 90 91 93 94 94 98 103 108 111 111 109 107 106 101 98 97 96 95 93 91 91 90 90 90 88 84 80 76 71 66 63 53 41 50 65 65 61 58 62 62 57 55 53 48 45 38 32 33 32 35 49 65 68 66 56 44 38 40 47 57 70 69 67 69 70 70 72 73 73 74 76 76 69 53 32 11 6 6 8 33 63 78 81 81 82 82 80 68 49 40 50 63 65 59 51 48 39 25 22 29 20 2 0 1 1 1 4 19 46 69 78 81 83 84 85 85 86 85 84 83 82 81 81 80 79 78 76 73 71 70 68 67 65 65 64 62 60 59 60 62 63 64 64 63 63 65 66 65 60
225 227 231 230 230 232 235 236 234 230 224 221 221 224 227 227 222 219 221 231 239 238 234 232 228 226 225 224 225 225 224 223 222 221 219 215 211 208 208 207 205 201 201 203 205 204 201 202 202 201 201 201 201 201 201 201 203 205 206 206 206 206 208 208 208 209 209 209 209 208 208 210 210 211 211 211 210 211 214 217 218 217 216 216 216 217 217 217 216 216 216 215 214 214 213 213 212 210 208 207 205 203 200 196 194 193 192 192 192 192 192 192 189 187 186 186 185 184 184 184 183 182 180 177 175 172 170 168 165 163 161 159 157 156 153 150 148 147 145 143 142 139 137 134 130 128 126 123 120 116 112 106 101 98 95 92 89 85 81 81 85 91 95 97 96 94 93 90 91 95 99 103 106 107 110 112 113 113 113 111 107 103 97 91 86 82 81 82 83 83 81 84 91 97 100 102 105 108 112 115 115 112 108 106 102 99 97 97 95 94 93 92 92 91 91 88 85 81 77 72 67 63 53 41 48 59 55 46 42 50 58 58 51 41 36 35 32 34 42 40 33 35 49 58 56 50 42 35 35 38 45 61 66 65 65 66 68 70 70 70 70 72 73 66 51 30 11 6 6 8 28 56 75 81 81 80 81 81 75 60 43 41 55 60 53 48 47 43 32 22 19 15 10 6 3 1 1 1 4 18 44 64 75 81 84 85 85 87 87 84 83 82 81 81 81 81 79 77 74 72 70 68 67 66 66 64 62 60 59 61 62 63 63 63 62 63 65 67 68 66
226 228 229 229 231 234 235 234 230 226 223 222 223 225 226 225 222 219 224 233 240 238 234 233 230 228 226 224 225 225 225 225 224 222 219 214 211 210 209 207 206 204 203 205 207 205 202 203 204 204 204 204 203 203 202 203 205 207 207 207 208 209 208 208 209 210 211 211 212 210 210 212 212 212 214 214 213 212 215 218 219 219 219 218 218 219 218 218 218 218 218 217 216 215 215 215 215 214 212 210 208 205 204 200 196 195 194 193 193 193 193 194 193 191 189 188 188 187 187 187 186 185 183 181 178 175 172 170 168 165 163 161 160 159 157 154 153 152 150 147 146 143 142 140 136 134 132 129 126 123 121 117 113 109 105 101 98 94 89 83 81 82 86 91 96 97 95 91 90 90 92 95 97 99 100 104 106 106 106 104 100 97 94 89 84 79 77 76 73 67 66 74 84 91 97 102 107 111 115 117 116 113 109 107 104 101 99 97 95 94 94 93 93 92 91 88 85 81 77 72 68 63 51 39 42 49 43 35 33 39 54 58 47 36 36 38 40 45 52 48 36 27 33 46 49 43 37 32 32 34 39 54 62 62 62 64 69 71 71 71 70 71 70 61 43 23 8 6 5 10 30 58 77 83 82 81 81 82 79 67 48 36 41 52 51 47 44 41 35 27 19 18 24 24 20 12 5 1 1 4 17 38 61 78 83 84 86 87 87 85 83 82 81 81 81 81 79 78 76 73 71 69 68 67 67 64 62 61 61 63 64 64 63 63 63 64 64 65 66 67
227 230 230 230 232 233 232 230 227 224 223 223 223 223 223 222 220 221 229 238 242 239 235 234 231 230 228 226 225 224 225 225 224 222 217 214 213 213 211 209 208 206 205 206 207 206 204 203 204 205 206 205 204 203 203 204 206 208 209 208 209 210 209 210 210 211 213 214 214 214 214 215 215 216 217 217 217 216 218 220 221 222 222 222 221 222 219 220 221 221 220 219 218 217 216 216 216 216 215 213 210 207 206 204 201 199 196 194 193 193 193 193 194 193 192 192 191 190 190 189 187 187 186 184 181 178 174 173 171 169 167 165 163 162 161 159 158 156 153 150 148 147 145 144 142 140 138 136 133 131 129 125 121 117 113 109 106 103 100 95 89 82 79 82 89 94 95 94 93 92 90 90 91 93 95 97 98 99 99 97 95 93 92 90 87 81 75 69 65 60 61 69 78 86 90 96 105 112 116 117 117 114 111 108 105 104 101 98 96 95 94 94 94 93 91 87 84 81 77 73 68 61 48 39 39 43 42 39 34 36 51 56 44 36 44 51 55 60 62 58 47 33 29 34 36 32 28 27 27 28 32 46 56 57 60 66 71 72 73 73 72 70 62 48 28 12 6 6 5 15 41 68 82 84 84 83 83 82 79 70 53 37 31 40 47 46 41 37 33 29 23 28 36 40 40 32 19 7 2 1 2 16 46 72 82 83 85 86 86 85 84 82 81 80 81 81 79 78 76 75 72 70 69 68 66 64 63 62 62 64 64 64 63 62 64 64 63 63 65 66
228 230 231 232 232 231 229 226 225 224 224 223 223 223 222 222 222 227 236 242 243 240 237 234 232 231 230 228 226 224 223 223 223 220 217 215 216 216 214 212 209 208 207 207 207 208 206 205 206 207 207 206 205 204 204 206 207 209 210 210 210 211 212 214 212 213 215 216 217 218 219 219 219 220 220 220 219 220 222 222 223 225 225 224 224 224 223 223 223 223 222 221 220 219 218 218 218 218 217 215 212 209 207 206 205 202 199 196 194 193 194 194 194 194 194 194 193 193 192 190 188 187 187 187 184 180 177 175 174 172 170 168 166 165 164 163 161 158 156 153 151 150 148 146 145 144 145 144 140 138 136 131 128 125 121 117 113 110 108 106 101 93 84 79 81 86 89 92 93 93 92 90 88 88 90 92 93 94 95 94 92 90 90 91 89 82 72 62 62 63 66 71 78 84 87 91 102 112 117 118 118 116 112 108 105 104 102 100 98 97 96 96 94 93 91 87 84 81 77 73 66 55 49 47 47 50 55 52 39 37 48 50 40 39 54 63 67 69 69 67 62 52 42 35 32 30 29 29 28 25 26 37 48 53 60 68 72 72 73 74 70 61 46 28 13 6 5 5 7 25 55 79 87 87 85 85 83 80 75 65 51 38 29 29 39 41 37 33 29 26 27 36 41 44 47 46 37 21 9 3 1 9 34 61 76 82 84 85 85 84 83 83 81 80 81 80 80 79 77 76 74 73 71 68 65 65 64 63 63 63 63 63 62 62 63 63 62 63 65 66
229 231 232 232 230 228 226 224 224 224 224 225 227 228 228 228 231 238 244 245 243 242 239 235 233 233 231 228 227 225 223 222 221 219 219 219 219 218 216 213 211 210 210 209 209 210 209 208 208 209 210 209 207 207 207 208 208 211 213 213 212 214 215 216 215 216 217 218 219 220 220 221 222 223 223 223 222 223 224 223 224 226 227 226 226 226 226 225 225 225 224 223 222 221 222 222 221 220 218 216 213 211 207 206 206 206 204 200 197 195 194 195 194 194 195 195 195 195 194 192 189 188 189 189 185 182 179 177 176 176 174 172 170 168 166 165 164 162 159 157 155 153 151 149 147 148 150 150 146 143 141 138 134 131 128 125 121 118 116 112 109 104 96 88 84 83 82 83 85 87 89 88 84 78 80 85 88 90 91 92 92 90 90 91 91 83 69 57 67 69 70 74 79 83 86 91 103 113 118 120 118 115 111 108 105 104 103 101 100 99 98 97 95 94 92 88 84 81 78 71 60 51 57 62 65 67 69 65 48 38 41 38 36 46 65 73 74 74 74 74 75 72 66 58 51 50 49 46 42 33 25 28 43 51 61 68 70 71 73 71 58 39 21 11 6 5 5 5 16 43 70 88 91 89 88 86 82 75 65 51 39 34 30 26 29 31 32 30 27 29 36 41 43 45 47 49 47 40 25 9 2 5 21 44 64 78 83 84 84 83 83 83 82 80 81 81 80 80 78 77 76 75 73 70 67 66 64 63 63 63 61 62 62 62 63 63 63 63 64 64
232 232 231 230 227 225 225 224 225 226 228 231 234 237 237 238 242 248 248 245 243 243 240 237 236 234 232 231 229 227 225 224 223 222 221 221 220 219 217 215 214 213 213 212 212 212 211 210 211 213 213 212 210 209 209 210 210 211 214 215 215 216 217 218 218 219 218 219 221 222 223 223 224 224 225 226 226 226 226 226 226 228 229 228 227 227 228 227 227 226 226 225 223 222 223 224 223 221 219 217 214 212 208 208 207 208 207 204 200 197 196 195 195 195 195 196 197 197 197 195 192 191 191 190 187 184 182 179 178 178 177 175 173 171 169 167 166 165 163 160 157 155 155 153 151 151 151 151 150 148 144 142 139 136 133 131 128 125 121 117 114 110 105 101 97 93 88 84 81 80 79 79 76 73 71 73 76 78 81 86 89 91 92 92 91 83 70 59 67 72 74 76 79 83 87 97 108 116 119 119 117 114 111 109 108 106 104 102 101 101 100 98 97 96 93 89 85 81 76 67 56 57 65 69 71 73 75 73 64 47 37 35 43 61 76 80 80 80 80 80 80 79 77 73 69 65 62 59 50 35 24 28 43 54 63 68 70 72 71 59 35 16 7 6 5 5 5 8 32 63 83 91 91 90 88 87 82 72 56 39 31 34 38 36 30 31 35 37 38 41 46 49 48 46 48 51 52 50 42 23 6 2 8 24 46 69 81 83 81 82 83 83 83 82 82 80 79 80 79 78 77 76 75 72 69 67 65 63 62 60 60 62 63 64 63 63 62 62 62 63
233 231 229 227 225 225 225 226 229 233 237 241 245 247 248 247 248 250 249 246 242 240 241 238 237 235 233 232 231 229 228 227 226 224 223 222 221 220 218 216 216 216 216 215 215 214 213 212 213 216 216 214 212 210 211 213 213 214 215 217 216 216 218 220 222 222 221 222 223 225 226 226 226 227 228 229 230 229 229 229 229 230 231 232 231 230 231 230 230 229 227 226 225 224 225 225 223 222 220 218 216 213 211 210 210 210 208 206 203 200 196 196 196 196 195 196 197 198 198 197 195 194 192 191 189 187 186 183 181 180 179 177 175 173 171 169 168 167 165 162 160 160 158 157 156 155 153 152 152 151 146 145 143 140 138 136 133 130 127 123 119 115 112 109 106 103 99 94 90 87 85 85 86 87 85 82 75 69 66 67 71 77 79 82 82 79 74 67 57 69 72 76 81 89 98 108 115 119 119 117 116 116 114 112 111 111 109 105 102 100 98 97 96 94 91 88 86 80 70 58 60 70 73 73 74 77 80 82 82 73 64 64 71 80 86 86 86 86 87 86 84 82 79 75 72 67 65 64 56 38 24 29 45 56 64 68 71 69 56 35 13 6 5 5 5 5 6 18 49 76 87 91 90 89 88 87 83 68 49 35 31 37 45 46 38 36 40 45 50 52 53 53 52 52 51 53 56 58 55 40 16 2 1 7 25 58 79 81 80 81 83 84 83 83 82 80 79 80 80 78 77 77 76 73 71 68 66 64 63 62 60 62 63 63 63 63 63 62 62 63
230 228 226 225 225 225 226 231 236 241 244 248 251 252 252 251 250 250 249 247 243 241 242 240 239 236 234 233 233 231 230 229 228 227 225 224 222 221 218 217 217 218 218 217 215 214 213 214 215 216 216 214 212 211 212 215 216 217 218 219 219 219 219 222 224 225 225 226 226 227 227 228 228 229 231 232 233 232 232 232 232 232 233 234 235 233 233 231 231 230 229 228 227 227 227 226 225 223 221 219 217 215 213 212 211 210 210 208 205 203 200 199 198 197 196 196 196 198 199 199 197 195 193 192 191 189 189 186 183 183 182 180 178 175 173 172 171 169 167 165 163 163 161 159 159 159 157 155 154 153 151 149 146 144 143 141 138 135 132 128 125 120 117 114 111 108 106 102 99 96 94 93 95 96 94 92 86 81 79 77 76 74 73 69 65 64 66 64 60 74 82 87 95 104 111 115 117 119 119 117 117 117 115 113 113 113 111 107 105 102 100 97 96 94 91 88 84 73 60 55 66 77 78 77 78 80 83 86 88 89 87 87 88 90 91 91 91 91 91 90 88 86 81 74 72 69 69 66 59 43 26 24 40 54 65 68 62 47 28 13 6 5 5 5 5 6 12 34 65 82 87 88 88 88 87 87 82 63 44 33 31 36 46 50 43 38 39 43 49 52 52 52 51 53 55 57 59 62 63 54 31 7 0 3 21 55 78 80 80 82 83 83 82 82 81 80 80 81 81 80 80 78 76 74 72 70 68 65 64 63 62 63 63 64 64 63 64 63 63 63
227 226 225 225 226 229 233 239 243 246 248 250 252 254 254 254 252 251 251 249 246 243 243 243 241 239 237 237 236 234 233 232 231 229 227 225 224 222 221 220 218 220 220 219 216 214 213 215 216 216 215 214 214 214 214 216 219 219 219 220 222 223 223 224 226 227 229 229 229 229 229 229 230 232 235 236 236 235 235 235 235 235 235 237 237 236 236 234 232 231 230 230 229 229 228 227 226 225 223 221 219 217 216 214 212 212 211 209 207 204 203 202 200 198 197 196 196 197 198 199 199 197 195 194 192 192 192 189 186 186 186 184 182 179 177 175 173 171 169 167 166 166 165 163 162 164 163 158 157 155 154 152 150 148 146 144 141 139 136 133 130 126 123 121 118 114 112 108 105 101 99 98 97 97 96 94 91 91 91 90 88 87 84 79 75 75 75 75 81 97 104 105 108 114 117 118 118 118 119 119 118 117 116 114 112 113 111 108 107 105 102 99 98 96 92 90 84 71 60 64 70 79 80 80 82 85 87 90 91 93 93 94 94 94 95 96 96 95 95 93 92 88 81 74 73 66 59 57 53 40 25 15 23 39 51 51 36 19 9 5 5 6 7 8 12 19 34 55 77 86 86 86 86 86 86 85 80 62 44 33 30 34 43 49 47 41 37 39 44 50 55 57 54 55 58 59 60 64 66 62 41 11 1 3 22 58 77 79 80 81 82 82 82 81 80 81 81 81 81 81 80 78 77 75 74 72 70 67 66 66 63 63 62 63 63 63 63 63 62 62
225 225 225 227 231 236 241 245 247 249 250 251 253 255 255 255 254 252 251 251 249 246 246 245 243 242 241 240 237 235 235 235 233 232 230 227 225 224 223 222 220 221 222 221 219 217 215 217 217 216 217 218 218 218 217 218 220 221 222 223 224 226 227 227 228 229 231 231 232 232 232 231 233 236 238 240 239 238 237 238 239 239 239 239 239 238 239 237 235 234 233 232 231 230 230 228 227 226 224 223 221 219 217 215 213 213 212 211 209 205 205 205 204 201 199 197 197 197 197 198 199 199 197 196 194 193 193 191 189 189 188 187 186 184 181 178 175 173 173 172 170 168 167 166 165 166 165 162 160 158 157 156 155 152 148 146 143 140 138 136 133 130 128 126 123 120 117 114 110 107 104 102 99 97 96 93 91 92 94 93 93 94 92 89 90 93 95 97 104 115 120 119 118 118 120 118 118 119 119 119 117 116 116 115 113 114 112 109 108 107 104 100 99 97 94 91 87 78 71 80 78 81 81 83 86 89 91 93 93 94 95 96 97 97 98 99 99 99 98 97 95 89 80 74 65 47 35 33 31 23 15 9 11 20 28 25 15 6 4 7 11 14 15 20 30 43 57 72 84 87 86 85 85 85 85 83 80 67 50 35 28 31 39 46 49 48 45 45 50 57 62 62 60 60 62 63 63 64 66 60 37 9 1 2 17 51 75 77 80 81 81 81 81 81 81 81 81 81 81 81 80 78 76 76 76 73 71 69 68 68 63 62 62 61 62 62 62 62 62 61
225 226 229 234 239 243 246 248 249 251 252 253 255 255 255 255 255 254 252 252 252 249 249 247 246 245 244 242 239 237 237 237 235 233 232 230 228 227 226 224 222 224 224 224 223 220 218 219 218 218 220 221 221 221 221 220 220 222 224 225 226 228 229 230 231 232 233 233 234 235 236 236 237 239 241 242 241 240 240 241 242 242 241 241 241 241 240 240 239 237 236 234 233 231 231 230 229 227 226 225 223 221 218 215 214 214 214 212 210 208 207 207 206 205 202 199 198 197 197 197 198 199 199 198 197 194 192 192 192 190 189 189 188 187 185 181 178 176 176 175 173 170 170 169 168 168 166 165 164 162 160 159 157 154 150 148 145 142 141 138 136 134 132 131 129 125 123 119 115 113 110 106 103 100 97 94 92 92 93 94 96 98 98 98 102 107 112 116 120 127 129 128 125 122 121 119 119 119 119 118 117 116 116 115 114 114 112 109 109 109 106 102 100 98 95 92 87 79 78 90 87 86 85 86 88 91 94 95 95 95 97 98 99 100 101 102 101 102 102 100 97 90 82 70 44 22 12 11 10 8 6 6 5 8 10 8 5 4 5 9 15 15 18 30 49 62 73 83 87 88 87 86 86 85 84 81 80 75 59 41 30 30 34 40 46 51 55 57 60 65 67 66 64 65 67 68 68 67 65 52 25 5 1 1 12 42 72 76 80 81 81 80 80 81 81 82 81 81 82 82 80 78 76 77 77 74 72 70 69 68 64 62 61 61 61 61 61 62 63 62
227 231 237 242 245 247 248 250 251 253 253 255 255 255 255 255 255 255 253 253 254 252 251 250 248 247 246 243 240 239 239 238 236 235 234 232 231 230 227 225 225 226 226 226 225 222 220 220 221 222 222 222 223 223 223 221 221 223 225 227 228 230 231 232 234 236 236 236 236 237 239 240 240 241 243 243 242 242 243 244 244 244 243 243 244 243 242 241 241 239 237 236 234 233 232 231 230 229 228 226 225 221 220 216 216 215 215 213 211 210 209 209 208 207 204 201 199 198 197 197 197 198 199 200 200 194 193 194 194 192 190 190 189 188 185 182 179 177 176 176 175 173 172 171 171 170 168 168 165 164 163 160 158 155 153 150 147 144 143 141 139 137 135 134 133 130 127 122 119 117 114 111 109 106 102 97 94 94 96 99 102 105 105 107 111 115 120 124 129 133 134 132 129 126 123 120 120 120 118 118 117 116 116 115 114 114 112 111 110 109 106 103 100 98 97 92 83 74 77 92 91 92 89 90 91 94 96 97 97 96 98 100 101 102 103 104 103 104 103 101 98 93 83 60 21 7 5 4 4 4 4 5 5 5 5 5 5 5 7 10 11 7 12 32 54 67 76 84 88 89 89 88 87 86 84 80 80 77 67 52 39 35 33 36 42 48 56 61 64 67 68 68 67 68 70 70 68 63 57 43 15 2 1 3 14 43 72 76 78 81 80 79 80 82 82 82 81 82 83 82 80 78 76 76 77 75 73 71 70 69 66 63 62 61 61 61 61 62 62 62
234 241 245 247 248 248 250 251 253 254 255 255 255 255 255 255 255 255 255 255 255 254 253 253 251 249 247 245 242 241 240 239 238 236 234 233 233 232 229 227 227 228 228 227 225 223 222 222 223 224 224 224 224 224 224 223 223 225 227 229 231 232 233 234 236 238 239 239 239 240 242 244 244 245 246 246 245 245 246 246 247 246 246 246 247 245 244 243 242 240 238 237 237 235 234 233 232 231 229 227 225 223 223 220 219 218 216 215 213 212 210 210 209 208 206 203 201 200 198 196 197 197 198 199 201 197 196 196 196 194 192 191 190 188 185 182 180 178 177 176 176 175 174 174 173 172 171 169 167 166 164 161 159 158 155 152 149 147 145 143 141 140 139 137 135 133 129 125 125 121 117 115 114 111 106 102 98 98 101 105 109 111 112 114 118 121 125 130 135 138 136 133 130 128 126 124 121 119 118 118 119 117 115 114 114 113 112 112 111 108 106 103 100 99 97 93 82 75 82 94 95 97 95 95 95 96 97 98 99 99 100 101 101 102 104 105 105 104 102 101 100 94 79 44 8 4 5 5 5 6 6 5 5 5 5 5 7 11 18 20 13 6 6 26 50 65 75 83 87 89 89 89 88 87 85 80 78 76 73 65 56 50 44 42 46 49 53 58 62 66 68 69 70 71 71 68 60 46 35 27 8 2 1 7 25 54 73 77 77 79 79 79 81 82 82 82 83 83 83 82 79 78 77 75 76 75 74 73 72 71 67 65 63 62 61 61 61 60 60 60
244 248 250 250 250 250 251 253 254 254 255 255 255 255 255 255 255 255 255 255 255 255 254 253 251 249 248 246 246 245 243 241 240 239 237 236 235 233 230 230 230 230 229 227 226 226 225 224 225 227 227 227 227 227 225 225 226 227 228 231 233 234 235 237 238 240 241 242 243 244 245 247 247 248 249 249 249 249 248 249 250 249 249 250 250 248 246 245 244 241 240 240 240 239 238 236 234 232 231 229 227 226 226 224 223 221 219 218 216 214 212 210 210 209 207 205 204 202 200 198 196 196 197 197 199 198 198 199 198 196 193 192 191 189 186 183 181 179 179 178 177 177 176 176 176 175 173 172 170 169 166 163 161 159 157 154 152 149 147 146 146 145 143 141 139 135 132 128 128 126 122 119 116 113 110 107 102 101 105 109 112 114 116 118 122 126 129 133 138 141 139 136 133 131 130 127 122 119 118 119 119 117 114 113 113 112 112 111 109 107 104 102 101 100 99 97 88 84 91 97 98 100 99 99 99 99 98 99 100 101 103 103 103 104 104 104 105 103 101 100 101 90 58 20 5 5 4 7 16 23 18 9 8 9 8 11 20 34 51 56 37 15 3 16 43 65 79 83 86 89 90 89 88 87 84 80 77 76 75 74 71 67 66 64 67 66 56 55 62 69 71 73 70 63 60 56 46 29 14 8 2 1 3 16 42 69 76 78 77 76 77 79 80 81 81 82 82 82 82 81 80 79 79 76 76 75 74 74 74 71 69 66 63 62 61 61 61 60 59 59
250 251 251 252 252 252 253 254 255 255 255 255 255 255 255 255 255 255 255 255 255 255 255 254 252 251 250 249 248 247 244 243 243 240 238 237 238 236 232 230 231 231 230 228 227 227 227 225 226 229 230 230 230 229 228 227 228 229 230 232 234 235 236 239 240 241 242 244 247 247 248 249 249 250 251 252 252 252 252 251 252 251 251 252 252 250 248 246 246 245 244 243 242 241 240 237 235 233 232 231 230 229 227 226 226 223 221 220 219 217 215 214 212 209 207 206 205 204 203 201 197 195 196 197 197 196 197 199 198 196 194 192 190 188 186 183 182 181 180 179 179 178 179 179 178 176 175 174 173 171 168 167 164 161 158 156 153 152 151 150 150 148 146 144 142 138 135 131 129 127 124 121 118 115 112 110 107 105 107 114 117 118 121 122 124 127 131 135 138 140 139 136 133 131 129 126 123 120 118 118 116 115 114 112 111 111 110 108 106 105 103 102 101 100 100 99 96 94 95 99 100 102 101 100 101 101 101 100 100 102 104 107 108 106 104 103 104 103 101 100 101 88 51 8 5 4 6 17 34 45 42 33 31 31 30 36 52 68 77 76 58 24 4 9 35 64 81 82 84 87 89 90 88 87 84 80 77 75 74 74 75 75 75 75 73 70 58 56 63 69 72 72 59 41 30 26 22 13 4 1 2 2 7 29 57 76 78 78 76 75 76 77 79 80 81 81 81 80 80 80 81 81 79 78 77 76 75 74 74 72 68 67 65 63 62 61 61 61 61 60
252 253 253 254 254 254 254 255 255 255 255 255 255 255 255 255 255 255 255 255 255 255 255 255 255 255 253 252 252 250 247 246 246 243 242 240 238 237 235 233 233 233 232 230 229 229 228 226 228 230 231 231 231 230 230 229 229 230 231 233 235 237 239 242 243 243 245 247 249 249 250 251 253 254 254 255 255 255 255 255 255 255 255 255 254 253 251 248 247 247 246 245 244 243 240 238 238 236 235 234 234 233 230 228 227 225 222 221 221 220 218 216 213 211 209 207 206 206 204 203 200 197 196 196 196 196 196 196 197 196 195 193 191 190 188 185 184 183 181 180 179 178 179 180 179 178 176 175 174 172 170 169 167 163 160 158 156 155 154 154 153 150 149 147 145 141 138 134 132 129 126 122 120 118 116 114 111 108 109 115 119 121 123 125 127 129 132 137 138 140 138 136 133 131 128 126 124 121 118 116 114 113 111 110 109 109 109 108 106 104 103 102 102 101 100 100 99 98 98 101 103 105 102 101 100 101 102 102 101 102 104 107 108 108 106 105 104 104 104 102 101 92 62 16 6 4 8 28 48 60 62 62 63 63 63 67 74 81 83 82 71 40 11 8 29 58 78 82 81 84 88 90 89 87 84 80 77 75 74 74 76 77 73 67 62 60 56 57 61 65 65 58 33 13 5 4 3 3 2 2 3 11 22 46 69 79 79 78 76 75 75 76 77 79 80 80 81 81 80 80 81 80 80 80 78 78 76 74 75 73 70 68 66 64 61 61 61 62 61 60
252 254 255 255 255 255 255 255 255 255 255 255 255 255 255 255 255 255 255 255 255 255 255 255 255 255 255 255 254 252 250 249 248 246 244 242 240 238 237 237 235 235 233 232 231 231 229 227 229 231 232 232 232 231 231 230 230 231 232 234 237 239 242 244 246 247 248 250 252 253 254 255 255 255 255 255 255 255 255 255 255 255 255 255 255 255 253 250 249 249 248 246 245 245 243 241 240 240 238 236 236 237 233 230 228 226 224 224 224 223 221 218 215 212 211 209 208 207 204 204 203 200 197 196 196 196 195 194 195 195 195 194 194 194 191 188 185 183 181 180 180 178 178 179 179 178 177 175 174 172 170 169 167 164 161 160 159 158 157 157 155 152 151 150 148 144 140 137 135 132 128 124 122 121 119 117 114 112 112 115 120 122 124 125 127 130 134 137 138 139 138 137 136 134 132 129 125 121 118 116 114 112 111 110 110 110 109 108 106 104 103 103 103 102 101 101 100 100 100 102 104 104 103 101 101 101 102 103 103 103 104 105 107 108 107 107 106 107 107 105 103 98 77 34 8 4 7 26 49 65 69 72 75 76 76 77 80 81 82 82 77 56 20 9 28 57 79 84 81 82 85 88 88 87 84 80 77 76 76 77 77 74 65 59 59 62 62 63 63 59 50 35 14 3 0 1 1 1 3 7 13 28 42 60 75 81 79 79 77 76 75 75 77 78 79 81 82 81 81 81 81 80 81 80 80 79 76 75 75 75 72 70 68 65 62 61 61 61 61 61
253 255 255 255 255 255 255 255 255 255 255 255 255 255 255 255 255 255 255 255 255 255 255 255 255 255 255 255 255 254 253 253 251 249 247 246 244 241 240 239 237 236 236 235 234 233 232 230 231 231 232 232 231 232 232 231 231 233 234 236 238 242 244 245 248 250 251 253 254 255 255 255 255 255 255 255 255 255 255 255 255 255 255 255 255 255 255 253 251 251 250 249 248 247 246 244 243 243 242 240 239 240 236 234 231 229 228 227 226 225 223 221 217 214 212 211 210 207 203 204 204 203 200 197 195 195 195 194 194 194 194 194 194 194 192 189 186 184 182 181 179 178 177 178 178 178 177 176 174 171 169 169 167 165 163 162 162 161 160 159 157 155 154 152 150 148 144 141 138 134 130 126 124 123 121 119 118 116 115 116 121 124 125 126 128 131 134 137 138 138 137 139 140 139 136 133 128 124 120 118 116 113 112 111 111 111 109 108 106 104 104 104 103 103 102 101 101 102 102 102 103 104 103 102 102 102 103 104 105 105 104 105 106 108 108 108 108 109 110 107 105 103 91 55 17 5 4 15 34 54 66 72 76 77 77 77 78 80 79 78 79 67 27 11 31 61 80 85 82 80 81 84 86 86 84 81 79 77 77 78 76 69 58 57 63 67 68 68 64 52 32 14 4 2 2 2 2 5 12 22 30 43 56 70 80 81 80 80 79 77 76 75 76 77 78 80 81 82 82 82 82 81 81 80 80 79 77 76 76 74 73 71 69 66 64 62 61 61 61 61
254 255 255 255 255 255 255 255 255 255 255 255 255 255 255 255 255 255 255 255 255 255 255 255 255 255 255 255 255 255 255 255 253 251 250 249 247 244 243 241 239 238 238 237 236 236 235 234 233 233 233 233 232 233 234 233 234 235 236 237 239 243 246 246 249 252 254 255 255 255 255 255 255 255 255 255 255 255 255 255 255 255 255 255 255 255 255 255 255 254 253 252 251 249 248 247 246 246 245 243 242 242 239 237 235 233 231 230 228 227 225 222 220 217 214 212 210 207 203 203 204 204 203 199 196 195 195 195 194 193 193 193 193 192 191 189 187 185 184 182 180 179 178 177 177 176 176 176 174 170 169 169 168 167 165 163 163 163 163 162 160 158 156 154 152 150 147 143 140 135 132 129 126 124 122 120 120 120 118 116 121 124 126 127 128 129 131 135 137 138 138 139 141 140 138 135 132 128 123 120 117 114 112 112 112 110 108 106 105 104 104 104 104 103 103 102 102 103 103 103 103 103 103 102 102 103 104 105 105 106 106 105 106 107 107 108 109 110 110 107 105 105 99 73 36 12 4 6 16 33 50 62 70 74 75 75 77 78 76 73 78 69 31 14 33 66 82 84 82 79 79 80 82 82 81 80 77 75 75 76 72 63 55 60 66 69 69 69 61 41 16 4 2 2 2 5 10 18 28 39 46 51 61 75 81 81 81 79 78 77 76 76 76 76 77 78 80 81 81 81 82 82 81 80 79 78 78 77 76 74 73 72 70 68 67 65 63 61 61 62
254 255 255 255 255 255 255 255 255 255 255 255 255 255 255 255 255 255 255 255 255 255 255 255 255 255 255 255 255 255 255 255 255 254 253 252 250 248 245 244 241 240 241 240 239 238 237 236 235 234 234 235 235 234 234 235 236 237 237 238 239 243 247 248 251 254 255 255 255 255 255 255 255 255 255 255 255 255 255 255 255 255 255 255 255 255 255 255 255 255 255 255 254 251 251 250 249 249 248 247 245 244 242 241 239 237 235 232 230 229 227 224 222 220 217 214 212 209 205 204 203 204 205 203 198 195 195 195 194 193 193 193 192 192 191 190 187 184 183 183 181 180 180 178 176 176 176 175 172 170 170 169 169 169 167 166 165 165 165 164 163 161 159 157 154 151 149 146 142 138 136 133 129 125 122 122 123 122 120 117 119 123 125 126 127 128 130 134 136 137 137 139 140 140 138 136 134 131 126 123 119 115 113 112 112 108 106 104 104 105 105 105 104 104 104 103 103 104 103 104 104 104 104 103 103 103 104 104 104 106 107 107 106 106 108 109 109 111 109 107 106 106 103 89 63 32 12 4 5 12 24 39 52 63 69 73 76 76 72 68 71 64 31 15 36 70 84 84 82 78 77 76 77 76 75 75 73 72 72 71 66 59 56 63 66 69 69 65 50 25 5 1 2 3 9 19 29 38 44 51 56 57 66 77 81 80 80 78 77 77 77 76 76 76 77 77 78 80 80 80 82 82 81 80 78 78 78 77 76 75 74 73 71 70 69 67 65 63 61 62
255 255 255 255 255 255 255 255 255 255 255 255 255 255 255 255 255 255 255 255 255 255 255 255 255 255 255 255 255 255 255 255 255 255 255 253 252 251 248 246 244 243 243 243 241 239 238 237 237 236 235 237 238 236 235 236 237 238 239 239 241 245 248 251 254 255 255 255 255 255 255 255 255 255 255 255 255 255 255 255 255 255 255 255 255 255 255 255 255 255 255 255 255 255 254 253 251 251 250 249 247 246 245 243 242 240 237 234 232 230 228 226 224 221 218 214 213 211 207 206 205 205 207 205 200 196 194 194 194 194 193 192 192 192 192 192 189 186 183 182 181 181 181 180 177 176 176 176 173 172 172 171 171 170 170 169 168 166 166 166 165 164 162 160 156 152 150 147 144 141 138 136 131 127 124 124 125 123 120 119 119 122 123 125 127 129 131 135 135 135 136 139 140 140 139 138 136 133 128 125 121 117 114 113 111 106 104 103 104 104 104 104 104 104 103 103 103 104 104 104 104 105 105 104 104 104 104 104 104 105 106 107 107 107 108 109 109 110 108 107 107 107 105 99 86 62 30 9 4 4 8 14 26 40 53 64 71 72 69 65 62 57 29 17 39 71 83 84 81 78 75 73 72 71 70 70 70 71 71 69 63 57 59 66 66 69 68 57 34 10 1 2 2 10 27 42 48 49 50 57 59 65 74 79 79 78 77 77 77 77 76 76 76 76 76 76 76 78 79 80 80 81 81 79 78 78 79 78 77 76 75 73 72 71 70 69 67 64 62 62
255 255 255 255 255 255 255 255 255 255 255 255 255 255 255 255 255 255 255 255 255 255 255 255 255 255 255 255 255 255 255 255 255 255 255 255 254 253 250 249 247 246 245 244 243 241 239 239 240 240 240 239 239 238 238 238 239 240 241 242 243 248 251 253 255 255 255 255 255 255 255 255 255 255 255 255 255 255 255 255 255 255 255 255 255 255 255 255 255 255 255 255 255 255 255 255 254 255 253 251 250 248 246 245 244 242 239 236 233 231 229 228 226 223 219 215 213 213 209 208 208 208 207 205 200 198 195 192 193 194 194 192 191 191 191 190 188 186 184 182 181 183 182 181 178 176 175 174 173 173 172 171 172 172 172 172 171 170 169 168 167 166 165 164 160 155 153 149 146 143 140 137 133 130 128 126 124 123 123 122 121 121 122 124 126 128 130 132 134 134 135 138 139 139 139 139 137 135 130 127 124 120 116 113 110 107 105 104 104 104 103 103 104 105 105 104 104 104 104 104 105 105 104 105 105 105 105 105 104 105 105 106 107 107 107 109 108 108 108 108 107 106 106 106 102 92 64 31 11 5 4 5 7 12 24 37 48 55 63 61 62 61 33 19 37 68 81 82 81 79 76 73 72 70 70 70 70 71 69 67 62 57 63 67 68 70 67 51 25 6 1 2 6 25 46 56 58 57 57 62 60 70 78 80 79 78 77 77 77 77 76 75 75 75 75 75 75 77 78 79 79 80 80 79 78 78 79 78 77 77 76 73 72 71 71 70 68 66 64 64
255 255 255 255 255 255 255 255 255 255 255 255 255 255 255 255 255 255 255 255 255 255 255 255 255 255 255 255 255 255 255 255 255 255 255 255 255 255 253 253 250 248 247 246 245 243 241 241 242 243 243 242 241 240 239 240 241 241 241 243 246 250 253 255 255 255 255 255 255 255 255 255 255 255 255 255 255 255 255 255 255 255 255 255 255 255 255 255 255 255 255 255 255 255 255 255 255 255 255 254 252 250 249 248 246 243 241 239 235 232 230 229 227 224 221 217 214 213 211 210 209 208 206 205 203 202 199 194 192 193 194 193 191 191 190 189 189 188 186 184 182 182 182 180 179 177 176 175 174 174 173 172 173 173 174 174 174 173 171 170 170 170 168 165 163 159 156 153 149 146 143 139 136 133 130 127 125 125 125 124 122 121 122 123 125 127 129 130 132 133 135 137 138 139 139 139 138 137 133 130 125 121 117 114 110 108 106 104 103 103 103 103 104 104 104 104 104 104 104 104 105 105 105 105 105 106 106 106 105 106 106 107 107 107 107 107 107 107 108 108 107 106 106 107 106 104 91 70 53 37 17 4 4 5 6 8 13 23 39 55 56 54 30 16 31 61 77 81 80 77 75 74 74 73 73 71 69 67 65 64 60 57 64 69 70 71 69 53 25 5 1 2 10 36 55 62 61 60 63 68 66 73 78 80 79 78 77 76 76 76 75 75 74 74 74 74 74 75 77 78 78 79 78 79 78 78 78 78 78 78 76 74 73 73 72 70 68 67 65 65
255 255 255 255 255 255 255 255 255 255 255 255 255 255 255 255 255 255 255 255 255 255 255 255 255 255 255 255 255 255 255 255 255 255 255 255 255 255 255 255 253 252 251 250 248 245 243 244 245 245 245 244 243 241 240 241 242 242 243 246 249 252 255 255 255 255 255 255 255 255 255 255 255 255 255 255 255 255 255 255 255 255 255 255 255 255 255 255 255 255 255 255 255 255 255 255 255 255 255 255 255 252 251 250 249 246 243 241 238 235 232 231 228 226 223 219 217 216 214 212 210 208 207 205 205 204 203 198 193 191 192 193 192 190 190 189 189 188 186 185 182 182 181 179 178 178 177 176 176 176 176 175 175 176 176 176 175 175 174 174 173 171 170 168 166 162 159 155 152 149 147 144 140 136 132 128 126 126 126 125 122 121 123 124 125 128 129 130 131 134 135 136 137 139 140 140 139 139 137 133 128 123 119 115 111 108 107 105 104 104 103 103 103 104 104 104 104 104 104 104 105 105 105 105 105 105 106 106 105 105 106 107 108 108 107 106 106 106 107 107 107 106 106 106 106 106 104 96 84 66 46 25 13 6 4 4 4 7 15 30 41 43 23 10 23 50 71 80 78 75 74 75 76 76 76 72 68 65 61 59 59 59 61 66 71 72 72 57 27 6 1 2 10 35 55 63 62 65 71 77 76 77 79 80 79 78 76 75 75 75 75 74 74 74 74 73 73 74 75 76 77 77 77 79 78 78 78 78 78 77 76 76 75 73 71 70 69 67 65 65
255 255 255 255 255 255 255 255 255 255 255 255 255 255 255 255 255 255 255 255 255 255 255 255 255 255 255 255 255 255 255 255 255 255 255 255 255 255 255 255 255 255 254 252 250 248 246 246 247 246 246 245 243 242 242 241 243 243 246 249 251 254 255 255 255 255 255 255 255 255 255 255 255 255 255 255 255 255 255 255 255 255 255 255 255 255 255 255 255 255 255 255 255 255 255 255 255 255 255 255 255 255 254 253 251 249 246 244 241 237 235 233 230 227 224 221 220 219 216 213 211 210 208 207 206 206 204 201 196 193 192 193 193 191 190 189 189 187 187 186 182 181 180 179 179 179 179 179 178 178 178 178 178 179 178 178 177 176 175 175 174 173 171 169 167 164 161 158 154 151 148 146 142 138 134 130 127 127 128 127 123 122 123 124 125 127 128 129 132 133 135 136 137 139 141 141 141 140 138 135 131 126 120 117 113 110 107 106 105 104 103 102 103 103 104 104 104 105 105 105 105 105 105 105 105 105 105 105 105 105 106 107 108 108 108 107 105 106 106 107 107 107 107 106 107 107 106 105 98 83 67 54 44 30 14 7 5 4 5 10 19 23 13 6 15 37 59 75 79 76 73 73 76 77 78 75 72 68 63 58 58 61 60 61 68 71 70 56 29 7 1 2 8 34 56 63 65 73 79 79 78 78 78 78 77 77 76 75 75 75 74 74 73 73 73 73 73 74 74 74 75 75 75 77 78 78 79 80 79 78 78 78 76 74 73 72 70 67 66 64
255 255 255 255 255 255 255 255 255 255 255 255 255 255 255 255 255 255 255 255 255 255 255 255 255 255 255 255 255 255 255 255 255 255 255 255 255 255 255 255 255 255 255 254 252 251 249 248 247 246 247 246 244 243 243 242 244 245 249 252 253 255 255 255 255 255 255 255 255 255 255 255 255 255 255 255 255 255 255 255 255 255 255 255 255 255 255 255 255 255 255 255 255 255 255 255 255 255 255 255 255 255 255 255 254 252 249 246 243 240 238 237 234 229 225 223 222 220 217 214 212 211 210 209 208 207 205 203 200 197 194 193 193 191 190 190 189 187 187 186 183 181 180 179 180 180 181 180 180 181 181 180 180 181 181 179 178 177 176 175 175 174 172 170 168 166 163 160 155 151 149 147 143 140 136 133 130 128 129 129 124 123 123 124 125 126 127 129 132 133 134 136 138 140 142 143 143 141 139 137 134 129 124 119 116 112 108 106 105 104 104 103 102 103 104 105 104 104 105 105 105 105 104 104 104 105 106 106 105 105 106 107 108 108 108 108 107 106 106 107 108 108 108 107 107 107 107 107 104 95 87 82 76 59 38 25 15 7 4 3 6 8 6 4 8 20 38 60 73 76 75 73 74 77 79 77 75 73 68 62 61 65 63 60 67 70 66 53 30 8 1 2 6 31 55 66 71 80 82 80 79 79 78 76 76 76 75 74 75 75 74 73 73 73 73 74 74 74 73 73 73 74 74 76 77 77 80 81 80 79 78 78 77 75 74 72 70 68 67 65
255 255 255 255 255 255 255 255 255 255 255 255 255 255 255 255 255 255 255 255 255 255 255 255 255 255 255 255 255 255 255 255 255 255 255 255 255 255 255 255 255 255 255 255 255 254 252 250 248 247 247 246 244 244 244 244 245 246 249 252 254 255 255 255 255 255 255 255 255 255 255 255 255 255 255 255 255 255 255 255 255 255 255 255 255 255 255 255 255 255 255 255 255 255 255 255 255 255 255 255 255 255 255 255 255 255 253 250 247 244 243 242 239 233 228 226 224 221 218 216 214 213 212 211 209 208 207 205 203 201 198 195 194 192 191 190 190 188 187 186 184 182 181 180 181 182 182 182 182 182 182 181 181 182 182 181 180 179 178 177 175 174 173 171 169 167 165 161 156 153 151 148 144 141 138 135 132 130 130 130 126 124 124 124 125 126 127 129 131 133 134 136 138 141 143 145 145 143 142 139 136 133 128 123 118 114 110 107 106 105 105 104 103 103 103 104 104 104 104 105 105 105 104 104 105 106 107 106 106 106 106 108 109 109 108 109 108 106 106 108 110 110 109 108 107 107 107 108 107 104 102 102 97 84 66 52 36 21 9 5 3 3 4 4 4 7 16 32 49 62 69 70 72 76 80 79 77 76 75 71 69 69 66 62 66 70 67 55 32 10 1 2 4 24 50 69 77 83 81 81 79 79 78 77 76 75 74 74 73 73 73 73 72 72 73 74 74 74 73 72 72 73 74 75 75 77 79 81 80 79 78 77 76 75 74 73 71 70 69 67
255 255 255 255 255 255 255 255 255 255 255 255 255 255 255 255 255 255 255 255 255 255 255 255 255 255 255 255 255 255 255 255 255 255 255 255 255 255 255 255 255 255 255 255 255 255 254 253 251 249 248 247 246 246 246 246 246 247 250 253 255 255 255 255 255 255 255 255 255 255 255 255 255 255 255 255 255 255 255 255 255 255 255 255 255 255 255 255 255 255 255 255 255 255 255 255 255 255 255 255 255 255 255 255 255 255 255 253 251 248 247 245 241 236 231 228 226 223 220 218 216 215 213 212 211 209 208 206 205 204 202 198 195 194 192 191 190 189 188 186 184 183 183 182 182 183 183 183 183 182 182 182 182 182 182 182 181 180 181 179 177 175 174 172 170 168 166 163 159 156 154 150 146 142 139 136 133 131 131 130 127 126 125 125 126 127 128 129 131 133 135 137 139 141 143 144 145 144 143 141 137 135 132 128 121 116 112 109 107 106 105 105 104 103 103 103 103 104 105 104 104 104 104 104 106 107 107 107 107 107 108 109 109 108 108 108 108 106 107 108 110 111 110 108 107 107 107 107 107 107 108 109 107 98 85 72 58 42 26 17 11 7 5 4 4 3 4 8 19 32 44 53 59 69 77 80 77 77 79 80 77 72 68 65 66 71 71 60 38 14 1 2 3 14 40 66 80 83 81 80 79 79 78 77 76 75 74 73 73 73 73 72 72 72 73 73 73 73 73 71 71 72 73 74 74 75 78 79 79 78 77 76 76 75 75 74 73 71 70 68
255 255 255 255 255 255 255 255 255 255 255 255 255 255 255 255 255 255 255 255 255 255 255 255 255 255 255 255 255 255 255 255 255 255 255 255 255 255 255 255 255 255 255 255 255 255 255 255 253 251 248 247 247 247 248 247 248 249 251 255 255 255 255 255 255 255 255 255 255 255 255 255 255 255 255 255 255 255 255 255 255 255 255 255 255 255 255 255 255 255 255 255 255 255 255 255 255 255 255 255 255 255 255 255 255 255 255 255 254 252 249 246 242 236 232 229 227 224 221 219 218 217 215 213 212 210 208 207 206 205 203 200 197 195 193 192 191 190 190 188 187 185 185 185 185 185 185 184 184 183 182 183 183 182 182 181 181 180 182 181 178 176 175 173 171 168 167 164 161 158 155 152 148 145 141 138 136 135 134 131 128 127 127 126 126 128 129 130 131 133 135 137 139 140 142 143 145 145 144 142 139 137 135 132 125 119 114 110 108 107 106 105 105 105 104 103 103 104 105 104 103 104 104 105 107 109 108 108 108 108 109 109 108 106 106 107 108 107 107 108 111 111 109 107 107 105 105 106 107 108 108 108 107 102 91 77 67 60 51 45 33 21 11 6 4 4 3 3 3 5 10 18 27 40 57 70 73 77 81 83 81 77 72 69 68 72 72 65 45 20 2 3 3 6 25 57 79 83 80 79 78 79 78 77 76 75 74 73 72 72 72 71 70 70 72 72 73 72 72 72 71 71 71 72 72 73 74 76 77 77 77 76 76 77 77 76 74 73 71 69
255 255 255 255 255 255 255 255 255 255 255 255 255 255 255 255 255 255 255 255 255 255 255 255 255 255 255 255 255 255 255 255 255 255 255 255 255 255 255 255 255 255 255 255 255 255 255 255 255 253 250 249 248 249 249 248 249 250 252 255 255 255 255 255 255 255 255 255 255 255 255 255 255 255 255 255 255 255 255 255 255 255 255 255 255 255 255 255 255 255 255 255 255 255 255 255 255 255 255 255 255 255 255 255 255 255 255 255 255 252 248 245 241 238 235 231 228 225 223 221 220 218 216 214 213 212 210 208 207 205 202 200 198 197 194 193 192 192 191 190 188 186 185 186 187 187 187 185 184 184 184 184 183 183 182 181 182 182 182 181 179 177 176 174 172 170 168 165 162 158 156 153 150 146 141 140 139 137 134 132 129 128 127 127 127 128 129 131 131 133 135 136 137 139 141 143 144 145 144 143 141 139 137 135 129 123 117 113 110 108 106 105 106 107 106 104 103 104 104 104 104 104 104 106 109 110 110 109 108 108 108 108 106 105 105 107 108 108 106 108 111 111 109 107 105 104 104 106 107 108 108 108 105 97 84 71 64 63 62 64 63 51 32 20 13 9 5 3 3 3 3 2 3 10 22 37 52 65 75 82 83 80 76 72 72 74 73 68 53 29 7 3 3 3 17 49 76 84 80 78 78 78 78 78 77 76 75 74 73 72 71 70 69 69 70 71 72 72 72 72 71 70 70 71 71 72 72 74 75 76 76 76 76 78 78 77 76 75 73 70
255 255 255 255 255 255 255 255 255 255 255 255 255 255 255 255 255 255 255 255 255 255 255 255 255 255 255 255 255 255 255 255 255 255 255 255 255 255 255 255 255 255 255 255 255 255 255 255 255 255 252 250 250 250 248 249 250 251 254 255 255 255 255 255 255 255 255 255 255 255 255 255 255 255 255 255 255 255 255 255 255 255 255 255 255 255 255 255 255 255 255 255 255 255 255 255 255 255 255 255 255 255 255 255 255 255 255 255 255 253 249 245 242 239 237 232 228 226 225 223 221 220 218 216 215 214 212 210 208 206 203 202 202 200 196 194 193 192 192 191 189 186 186 187 188 187 187 187 186 186 186 185 184 183 183 182 183 182 182 181 180 179 177 175 173 171 169 166 163 160 157 154 151 148 144 141 139 137 134 132 131 129 128 127 127 128 129 130 131 133 135 136 137 138 140 142 144 144 145 144 142 140 139 136 132 126 120 116 113 110 107 106 106 106 106 105 105 104 105 105 105 105 104 107 109 110 110 109 108 107 107 107 106 106 108 109 108 108 105 108 111 111 109 107 105 103 103 105 107 108 108 105 96 84 78 78 77 75 74 76 79 74 69 60 50 38 22 13 7 3 3 3 3 3 4 9 18 32 49 68 81 82 79 75 75 75 72 69 61 44 19 4 3 2 11 38 68 83 81 79 78 78 77 77 76 76 75 73 73 72 71 70 69 69 69 70 72 73 73 73 72 71 71 70 70 72 73 73 74 75 76 76 76 77 76 76 76 76 74 73
255 255 255 255 255 255 255 255 255 255 255 255 255 255 255 255 255 255 255 255 255 255 255 255 255 255 255 255 255 255 255 255 255 255 255 255 255 255 255 255 255 255 255 255 255 255 255 255 255 255 255 252 251 252 251 252 252 254 255 255 255 255 255 255 255 255 255 255 255 255 255 255 255 255 255 255 255 255 255 255 255 255 255 255 255 255 255 255 255 255 255 255 255 255 255 255 255 255 255 255 255 255 255 255 255 255 255 255 255 255 251 247 244 241 237 233 231 229 227 226 224 223 220 218 216 216 214 211 209 207 205 205 205 203 198 194 193 193 193 193 192 190 189 189 188 187 187 188 188 186 186 186 185 185 184 183 183 183 182 181 180 179 178 176 173 172 170 167 165 162 158 156 153 150 146 143 140 138 135 134 133 131 129 127 127 127 128 129 131 132 134 135 137 138 139 141 143 143 144 144 142 140 138 136 132 128 123 119 115 111 108 107 106 106 105 106 107 106 106 106 105 105 105 107 110 110 108 107 107 107 107 106 106 107 109 110 108 108 106 107 110 111 108 106 105 103 103 105 106 107 106 102 90 83 90 96 93 85 79 77 78 77 78 78 77 72 59 45 30 15 9 5 4 3 2 3 4 10 22 42 64 77 81 78 78 75 70 67 65 56 32 9 3 2 6 24 52 74 81 79 78 77 76 76 76 76 75 74 72 72 72 71 70 69 70 70 72 73 73 72 72 72 72 70 70 70 71 72 72 74 74 75 76 77 77 77 78 78 77 74
255 255 255 255 255 255 255 255 255 255 255 255 255 255 255 255 255 255 255 255 255 255 255 255 255 255 255 255 255 255 255 255 255 255 255 255 255 255 255 255 255 255 255 255 255 255 255 255 255 255 255 255 255 255 255 255 255 255 255 255 255 255 255 255 255 255 255 255 255 255 255 255 255 255 255 255 255 255 255 255 255 255 255 255 255 255 255 255 255 255 255 255 255 255 255 255 255 255 255 255 255 255 255 255 255 255 255 255 255 255 253 249 247 243 239 234 234 232 229 228 227 224 222 220 218 217 215 212 210 208 206 206 206 204 202 196 194 193 193 193 193 192 191 190 188 187 187 189 189 187 186 187 187 186 185 184 184 183 182 181 181 180 178 177 174 172 171 168 166 163 159 157 154 152 148 145 142 138 135 135 134 132 131 130 128 127 127 129 130 131 133 134 135 136 138 140 141 142 143 142 141 140 137 135 132 129 125 122 118 114 111 109 108 107 105 107 108 108 108 106 107 106 105 106 107 107 106 106 106 106 106 106 106 106 107 107 107 109 108 106 108 109 108 106 104 103 104 105 105 105 104 99 91 95 102 105 102 94 86 79 75 73 73 77 81 82 78 73 64 48 34 23 15 9 6 4 3 3 7 17 35 54 70 79 81 77 69 65 66 64 44 17 3 2 3 13 32 56 75 80 78 76 76 76 76 76 76 75 73 72 72 72 71 70 70 70 71 72 71 71 72 72 71 70 70 70 70 70 71 72 74 75 77 77 77 77 78 78 77 75
255 255 255 255 255 255 255 255 255 255 255 255 255 255 255 255 255 255 255 255 255 255 255 255 255 255 255 255 255 255 255 255 255 255 255 255 255 255 255 255 255 255 255 255 255 255 255 255 255 255 255 255 255 255 255 255 255 255 255 255 255 255 255 255 255 255 255 255 255 255 255 255 255 255 255 255 255 255 255 255 255 255 255 255 255 255 255 255 255 255 255 255 255 255 255 255 255 255 255 255 255 255 255 255 255 255 255 255 255 255 255 252 248 245 241 237 236 234 231 229 227 225 224 223 221 219 216 213 211 209 209 209 208 206 206 200 195 194 194 194 194 194 192 190 189 188 189 190 190 188 187 188 187 186 186 185 184 183 183 182 182 180 179 178 175 173 172 169 167 164 160 157 155 152 150 147 142 139 137 135 134 132 131 131 130 129 128 128 128 129 131 132 133 134 136 138 139 141 142 141 140 139 136 134 132 129 126 124 121 118 114 111 108 108 107 107 108 109 108 107 107 107 106 105 106 106 106 105 106 106 106 106 105 105 105 105 106 108 109 107 106 108 107 106 104 104 104 105 105 105 104 101 100 104 107 107 105 101 97 89 81 75 71 72 75 78 79 79 79 72 63 50 37 27 19 9 3 3 3 5 13 27 44 64 78 80 73 65 64 66 54 28 5 3 2 7 22 48 71 80 78 77 76 76 76 76 76 75 74 73 73 73 72 71 71 71 71 72 71 71 72 72 71 70 70 70 69 69 69 71 73 74 76 77 77 78 78 77 76 76
255 255 255 255 255 255 255 255 255 255 255 255 255 255 255 255 255 255 255 255 255 255 255 255 255 255 255 255 255 255 255 255 255 255 255 255 255 255 255 255 255 255 255 255 255 255 255 255 255 255 255 255 255 255 255 255 255 255 255 255 255 255 255 255 255 255 255 255 255 255 255 255 255 255 255 255 255 255 255 255 255 255 255 255 255 255 255 255 255 255 255 255 255 255 255 255 255 255 255 255 255 255 255 255 255 255 255 255 255 255 255 254 251 247 244 241 238 236 233 231 228 226 225 224 223 220 218 216 215 213 211 211 210 209 210 205 199 195 195 195 195 195 194 192 190 190 191 190 190 189 188 187 186 186 186 186 184 183 183 183 182 181 179 178 176 174 173 171 168 164 161 158 156 153 151 147 143 140 138 136 134 131 131 131 130 130 130 128 127 127 129 130 131 132 133 135 136 139 140 139 138 137 135 134 132 129 127 125 124 121 117 113 110 109 108 108 109 109 107 107 108 107 106 106 106 106 105 105 106 106 106 106 105 104 104 104 105 107 109 107 105 106 106 105 104 104 104 104 105 105 105 105 105 106 107 107 105 105 105 100 93 87 80 75 73 73 75 77 79 80 78 72 62 51 42 24 10 3 2 3 4 8 17 34 55 68 72 67 62 62 59 38 10 3 2 4 16 46 73 79 78 77 77 77 77 76 75 74 74 74 73 73 73 72 72 72 72 72 71 70 70 71 70 70 70 69 68 68 69 70 71 72 74 74 76 77 77 76 76 77
255 255 255 255 255 255 255 255 255 255 255 255 255 255 255 255 255 255 255 255 255 255 255 255 255 255 255 255 255 255 255 255 255 255 255 255 255 255 255 255 255 255 255 255 255 255 255 255 255 255 255 255 255 255 255 255 255 255 255 255 255 255 255 255 255 255 255 255 255 255 255 255 255 255 255 255 255 255 255 255 255 255 255 255 255 255 255 255 255 255 255 255 255 255 255 255 255 255 255 255 255 255 255 255 255 255 255 255 255 255 255 255 253 250 246 242 240 237 235 233 230 228 226 224 223 222 220 219 218 216 214 212 211 212 210 209 204 198 196 196 195 195 194 193 192 191 190 189 189 187 187 186 185 186 186 185 184 182 183 183 182 181 179 179 177 175 174 172 168 164 161 159 157 154 151 148 145 142 139 137 135 132 132 132 131 131 131 130 128 127 127 128 129 131 131 132 134 137 138 138 137 136 135 134 132 130 127 126 125 122 119 116 113 111 110 110 110 109 108 107 108 107 107 106 105 104 105 105 105 106 105 105 105 104 104 104 105 106 107 106 105 105 106 105 104 104 104 104 105 106 106 106 105 105 106 106 106 106 107 105 102 98 92 85 77 73 74 77 77 76 78 78 75 69 63 48 30 13 6 3 3 3 5 9 23 37 51 59 60 58 55 39 12 3 3 2 8 36 71 78 78 78 78 78 78 77 75 74 73 73 72 72 73 73 74 73 72 71 70 69 68 69 69 70 70 69 68 68 68 69 70 70 71 72 73 74 75 76 77 78
